ply
format ascii 1.0
element vertex 839
property float x
property float y
property float z
property float nx
property float ny
property float nz
end_header
-0.393098 -0.222384 0.234702 -0.658386 -0.710143 -0.249448
0.397794 0.841355 0.219082 0.589152 0.808012 -0.00417254
0.387182 0.849128 0.208331 -0.114316 -0.992725 -0.0378126
0.376036 0.842043 0.198163 0.600748 -0.799221 -0.0186659
0.402183 0.82792 0.213394 0.873603 0.486617 0.00468172
0.371112 0.827766 0.203853 0.874298 -0.485379 0.00328692
0.404169 0.812969 0.210529 0.971073 0.226299 0.0761933
0.369301 0.812387 0.207 0.975817 -0.216621 0.0292495
0.404933 0.796953 0.208188 0.974882 0.166778 0.147617
0.368843 0.796631 0.209801 0.999219 0.00497963 -0.0391904
0.405396 0.780327 0.203525 0.982433 0.0144768 0.186055
0.368791 0.77979 0.215079 0.996599 0.0101692 0.0817727
0.404869 0.761332 0.209988 0.987468 0.00327586 0.157783
0.368952 0.762488 0.205387 0.999333 0.0256726 0.0259666
0.404989 0.741465 0.208383 0.997415 0.0696874 0.0175013
0.368852 0.743575 0.210386 0.999724 -0.0090023 -0.0217148
0.404949 0.723328 0.208908 0.993869 0.00558884 0.110425
0.368871 0.723791 0.209274 0.996704 -0.0652729 -0.0481635
0.404945 0.705493 0.208954 0.993929 0.000984996 0.110023
0.368874 0.705447 0.209154 0.999358 -0.00925312 0.0346178
0.404946 0.687757 0.208948 0.993905 -0.000880741 0.110237
0.368874 0.687586 0.209155 0.999368 -0.00580621 0.0350583
0.404946 0.670051 0.208946 0.993908 -0.00158786 0.110201
0.368874 0.669856 0.209156 0.999374 -0.00429901 0.0351188
0.404946 0.652349 0.208947 0.993902 -0.00214956 0.110249
0.368874 0.652151 0.209157 0.999381 -0.00357139 0.0350119
0.404945 0.63462 0.208956 0.993861 -0.00284454 0.110597
0.368874 0.634437 0.209169 0.999394 -0.00292449 0.0346987
0.404939 0.616809 0.209027 0.993818 -0.00283957 0.110982
0.368874 0.616711 0.209197 0.999413 -0.00240312 0.0341747
0.404906 0.598891 0.20948 0.988602 -0.0947175 0.117023
0.368876 0.599111 0.2091 0.993238 0.103766 0.0520697
0.404972 0.581746 0.208591 0.989758 -0.0716413 0.123475
0.368913 0.582646 0.207136 0.995255 -0.0890689 0.0391604
0.405037 0.563817 0.207771 0.998838 -0.0219999 0.0428892
0.368809 0.567591 0.213353 0.997775 -0.00693424 -0.0663076
0.405097 0.547539 0.20698 0.950936 -0.0903454 0.295903
0.369005 0.550985 0.203363 0.998114 -0.059257 0.0160444
0.404585 0.53314 0.214343 0.988883 -0.136252 0.0595465
0.368911 0.533415 0.207362 0.991882 -0.118941 0.0449861
0.404918 0.516456 0.209698 0.983287 -0.12935 0.128121
0.368832 0.516571 0.210018 0.990753 0.129886 0.0392322
0.404552 0.499833 0.208316 0.91532 -0.368891 0.16158
0.369299 0.499967 0.211904 0.974086 0.215526 0.0685958
0.402858 0.484513 0.204477 0.849465 -0.51571 0.111586
0.371228 0.484371 0.214575 0.863858 0.493917 0.0989735
0.398845 0.470737 0.199026 0.507583 -0.856176 0.0965487
0.375564 0.47057 0.220106 0.549904 0.835109 0.0140706
0.386783 0.463584 0.208777 0.280314 -0.959891 0.00580372
0.0860053 -0.142807 0.209502 0.156723 0.975127 0.156735
0.0682205 -0.140778 0.209413 0.0923531 0.991434 0.0923513
0.0504212 -0.140099 0.20931 0.0362878 0.998683 0.0362785
0.0326738 -0.140097 0.209259 0.00830895 0.999931 0.00830533
0.0149596 -0.140097 0.209244 2.55935e-005 1 2.5613e-005
-0.00274213 -0.140097 0.209239 3.40827e-017 1 -1.3384e-016
-0.0204387 -0.140097 0.209238 -4.76432e-017 1 -1.7659e-016
-0.0381352 -0.140097 0.209237 -4.7062e-017 1 -1.65033e-016
-0.0558307 -0.140097 0.209237 4.71905e-017 1 -1.0981e-016
-0.0735272 -0.140097 0.209237 5.2846e-017 1 2.23222e-016
-0.0912227 -0.140097 0.209237 -4.10473e-017 1 1.09039e-016
-0.108919 -0.140097 0.209237 5.37653e-017 1 -2.65653e-016
-0.126616 -0.140097 0.209237 5.3762e-017 1 -2.6569e-016
-0.144311 -0.140097 0.209237 9.72468e-017 1 -1.21761e-016
-0.162008 -0.140097 0.209237 4.3854e-018 1 -2.06709e-016
-0.179546 -0.140097 0.209088 8.339e-017 1 -9.75632e-018
-0.197291 -0.140097 0.209098 3.18601e-018 1 1.11611e-016
-0.214649 -0.140097 0.208922 8.74075e-017 1 -1.64515e-016
-0.232582 -0.140097 0.208843 -1.25433e-016 1 -1.33216e-016
-0.249968 -0.140097 0.208835 3.06722e-016 1 -8.60794e-017
-0.267779 -0.140097 0.205133 -2.2027e-016 1 1.57694e-016
-0.2855 -0.140097 0.212653 -9.57208e-018 1 1.32977e-016
-0.302933 -0.140097 0.207814 9.08909e-005 1 7.36222e-006
-0.320689 -0.140097 0.203491 -0.00562532 0.999984 3.93555e-006
-0.338456 -0.140088 0.214657 -0.0359621 0.999352 -0.0013154
-0.355742 -0.140668 0.21005 -0.125334 0.992111 -0.00260017
-0.372312 -0.142984 0.207233 -0.306899 0.951742 -0.000815051
0.293918 -0.166768 0.216272 0.600428 0.797083 -0.0643896
0.278034 -0.160563 0.212503 0.30344 0.952252 -0.0337739
0.261236 -0.158317 0.209924 0.117225 0.993032 -0.0120618
0.244268 -0.157779 0.205076 0.0326042 0.999464 -0.00287188
0.225944 -0.157794 0.214495 0.00374253 0.999991 -0.00193822
0.207177 -0.157794 0.208779 0.00308402 0.999991 0.00290816
0.187636 -0.157775 0.209662 0.0174059 0.999646 0.0201115
0.169893 -0.157707 0.20977 0.0541362 0.997051 0.0543873
0.153084 -0.156943 0.209974 0.102509 0.989275 0.10405
0.137176 -0.155024 0.20983 0.148501 0.9772 0.15175
0.120994 -0.151174 0.209105 0.181235 0.965724 0.185826
0.121279 -0.146716 0.191667 0.189858 0.96308 0.190866
-0.387723 -0.149222 0.203448 -0.575303 0.817934 -0.00321167
0.30607 -0.179075 0.222059 0.872486 0.47561 -0.112084
-0.399729 -0.160778 0.196974 -0.829986 0.557784 -0.000823921
-0.405817 -0.176131 0.205448 -0.978152 0.207644 -0.0101731
0.309702 -0.196007 0.212766 0.993926 -0.0538409 -0.0959815
-0.40607 -0.192597 0.212645 -0.985753 -0.162102 -0.0448781
0.304662 -0.20998 0.202384 0.868971 -0.487719 -0.0837885
-0.401064 -0.208513 0.22116 -0.853987 -0.504744 -0.126252
0.293347 -0.221369 0.207713 0.572703 -0.806816 -0.145118
0.277811 -0.227314 0.209403 0.277425 -0.94858 -0.15242
0.261051 -0.22908 0.210402 0.0847079 -0.988446 -0.125696
0.243071 -0.229186 0.209837 0.00383982 -0.996928 -0.0782315
0.225923 -0.22885 0.20792 -0.0178817 -0.99886 -0.0442536
0.208192 -0.228629 0.207678 -0.0118781 -0.999663 -0.0230724
0.1904 -0.228568 0.207575 -0.00756228 -0.99994 -0.00795398
0.172694 -0.228579 0.208377 -0.00227523 -0.999993 -0.00311096
0.15556 -0.228581 0.212482 -0.000382945 -1 -0.000509499
0.137987 -0.228581 0.204374 4.12036e-005 -1 2.15981e-005
0.120211 -0.228581 0.208365 -1.0057e-017 -1 5.08894e-017
0.102952 -0.228581 0.208413 9.13995e-018 -1 1.00843e-017
0.0850729 -0.228581 0.208516 5.20298e-017 -1 8.53627e-017
0.0677439 -0.228581 0.209035 1.42885e-017 -1 -1.37846e-016
0.0502353 -0.228581 0.209072 -1.36885e-016 -1 3.80742e-017
0.0325357 -0.228581 0.20906 -1.24288e-019 -1 8.63263e-017
0.0148641 -0.228581 0.209139 -9.03105e-017 -1 -2.31904e-016
-0.00278159 -0.228581 0.209209 1.5569e-017 -1 9.9445e-017
-0.0204418 -0.228581 0.209237 -1.41347e-016 -1 -1.06221e-016
-0.0381383 -0.228581 0.209237 1.24119e-019 -1 -1.39791e-017
-0.0558338 -0.228581 0.209237 -4.1508e-017 -1 -1.01441e-016
-0.0735303 -0.228581 0.209237 -4.15367e-017 -1 -1.01221e-016
-0.0912268 -0.228581 0.209237 -3.94172e-017 -1 9.14149e-017
-0.108922 -0.228581 0.209237 -4.12314e-017 -1 -1.01692e-016
-0.126619 -0.228581 0.209237 1.01723e-017 -1 -3.06163e-017
-0.144314 -0.228581 0.209237 -7.69584e-017 -1 1.75545e-016
-0.162011 -0.228581 0.209237 -4.10479e-017 -1 -1.05883e-016
-0.179707 -0.228581 0.209237 2.83562e-017 -1 -8.82305e-017
-0.197403 -0.228581 0.209237 1.37505e-017 -1 -1.05152e-016
-0.215095 -0.228581 0.209238 -2.27513e-017 -1 -8.84453e-017
-0.232776 -0.228581 0.209242 1.76327e-016 -1 -4.3991e-018
-0.250419 -0.228581 0.209263 -1.1941e-016 -1 -1.46456e-016
-0.267969 -0.228581 0.209338 1.71946e-016 -1 -1.14257e-016
-0.285364 -0.228581 0.209608 0.00023274 -1 -0.000150403
-0.302504 -0.228581 0.210507 0.0049712 -0.999966 -0.00658119
-0.31913 -0.228607 0.213071 0.0175446 -0.999223 -0.0352857
-0.337233 -0.228704 0.209027 -0.00491111 -0.997914 -0.0643731
-0.355607 -0.228638 0.211491 -0.0952391 -0.989153 -0.111828
-0.372955 -0.226688 0.212738 -0.29463 -0.943882 -0.149266
-0.389175 -0.22051 0.216151 -0.593426 -0.790393 -0.15207
0.398422 0.841825 0.200126 0.563954 0.823076 0.0671023
0.388366 0.849784 0.189521 -0.208093 -0.970039 -0.125382
0.376832 0.841723 0.180845 0.640794 -0.764595 0.0691258
0.403284 0.8287 0.195008 0.848077 0.504791 0.161095
0.372089 0.827526 0.186141 0.875583 -0.471479 0.105177
0.405681 0.813592 0.192929 0.950547 0.258159 0.17267
0.370046 0.81202 0.18909 0.967538 -0.228178 0.108648
0.40674 0.798217 0.190891 0.981553 0.0387843 0.187215
0.369543 0.795787 0.190953 0.993261 -0.0474923 0.10572
0.407662 0.783748 0.187045 0.961326 -0.0787185 0.263925
0.3692 0.780293 0.196491 0.993008 -0.0201758 0.11631
0.407084 0.767844 0.190355 0.987547 0.0392983 0.152335
0.369797 0.765254 0.188165 0.991372 0.0736909 0.108405
0.406915 0.751275 0.191399 0.96719 0.160723 0.196754
0.36957 0.748505 0.190975 0.999542 0.029816 0.0052162
0.406993 0.733367 0.190927 0.98987 0.027028 0.139383
0.369511 0.731337 0.191783 0.998668 0.032414 0.0401467
0.406975 0.715586 0.191034 0.989788 0.029057 0.139555
0.369543 0.71337 0.191337 0.995968 -0.016643 0.0881464
0.406974 0.697852 0.191036 0.989949 0.0275018 0.138727
0.369549 0.695535 0.19126 0.995897 -0.016332 0.0890106
0.406974 0.680144 0.191035 0.990006 0.0267092 0.138474
0.369549 0.677801 0.191251 0.995884 -0.0153405 0.0893323
0.406974 0.662446 0.191036 0.990022 0.0261654 0.138462
0.369549 0.660097 0.19125 0.995889 -0.0147472 0.0893683
0.406974 0.644744 0.191038 0.989994 0.0255755 0.138774
0.369549 0.642393 0.191251 0.995908 -0.0142082 0.0892512
0.406971 0.627028 0.191056 0.989957 0.0252265 0.139102
0.369549 0.624668 0.191259 0.995926 -0.013226 0.0891945
0.406953 0.609289 0.191169 0.990617 0.0268517 0.134004
0.369552 0.606877 0.191227 0.995978 -0.0110653 0.0889171
0.40698 0.591684 0.191007 0.981749 -0.00936404 0.189948
0.369592 0.588886 0.190706 0.995378 -0.00819812 0.0956835
0.407029 0.573797 0.190713 0.989158 0.00283373 0.146826
0.369452 0.569483 0.192596 0.995444 -0.0190539 0.093429
0.407092 0.555282 0.190354 0.993273 0.0162115 0.114655
0.36987 0.552249 0.187361 0.992683 -0.0150552 0.119804
0.406574 0.535002 0.193492 0.987615 -0.00366752 0.156857
0.369783 0.534099 0.188351 0.995656 -0.00483325 0.092983
0.406944 0.516624 0.191443 0.99191 -0.0231503 0.124812
0.369488 0.51722 0.192035 0.99437 0.0116888 0.105319
0.406702 0.499728 0.189392 0.850459 -0.266224 0.453701
0.369649 0.501182 0.194866 0.99171 0.127131 0.0187028
0.405287 0.484133 0.185145 0.808447 -0.532202 0.251344
0.371522 0.484931 0.19713 0.863885 0.49128 0.111115
0.401167 0.469768 0.181918 0.504622 -0.849289 0.15513
0.37619 0.471287 0.200474 0.560107 0.827015 -0.0482206
0.387149 0.463468 0.190117 0.113987 -0.98478 0.131208
0.1037 -0.142807 0.191811 0.148902 0.977353 0.150363
0.0859139 -0.140778 0.191722 0.0923692 0.991431 0.0923688
0.0681156 -0.140099 0.19162 0.0363026 0.998681 0.0363003
0.0503682 -0.140097 0.191569 0.00831677 0.999931 0.00831605
0.032654 -0.140097 0.191551 2.55868e-005 1 2.55962e-005
0.0149533 -0.140097 0.191546 -3.39261e-017 1 1.27227e-016
-0.00274421 -0.140097 0.191546 -2.80072e-017 1 -2.44817e-017
-0.0204397 -0.140097 0.191545 9.19268e-017 1 -2.26327e-017
-0.0381362 -0.140097 0.191545 -4.66488e-017 1 1.93899e-016
-0.0558317 -0.140097 0.191545 1.03116e-018 1 -2.29969e-016
-0.0735282 -0.140097 0.191545 8.19817e-017 1 8.06155e-017
-0.0912248 -0.140097 0.191545 6.5131e-017 1 2.17195e-016
-0.10892 -0.140097 0.191545 1.63903e-018 1 -2.22916e-016
-0.126617 -0.140097 0.191545 6.86185e-017 1 2.17412e-016
-0.144312 -0.140097 0.191545 8.44987e-019 1 -1.14267e-017
-0.162009 -0.140097 0.191545 4.424e-016 1 2.39021e-016
-0.179695 -0.140097 0.191542 -4.4986e-017 1 5.24987e-018
-0.197335 -0.140097 0.191485 2.7937e-017 1 -2.05599e-017
-0.215034 -0.140097 0.19144 2.53022e-017 1 2.34854e-016
-0.232587 -0.140097 0.191403 -6.89241e-017 1 6.37596e-017
-0.249871 -0.140097 0.190975 -1.74021e-017 1 -2.70895e-016
-0.267365 -0.140097 0.18795 -2.40403e-016 1 2.17843e-016
-0.285208 -0.140097 0.194058 1.14509e-016 1 9.25897e-017
-0.302744 -0.140097 0.189899 8.68901e-005 1 9.68347e-007
-0.320703 -0.140097 0.1858 -0.00567279 0.999984 1.69766e-005
-0.338474 -0.140088 0.196953 -0.0360749 0.999348 -0.00133929
-0.355752 -0.140669 0.192355 -0.125492 0.992091 -0.00258167
-0.372332 -0.142989 0.189548 -0.307295 0.951614 -0.000691237
0.293537 -0.166745 0.197817 0.60144 0.798848 -0.010512
0.277963 -0.16058 0.194194 0.304713 0.952429 -0.00530444
0.261546 -0.158345 0.191521 0.123718 0.992314 0.00255971
0.244682 -0.157788 0.186638 0.0352756 0.999377 0.000876924
0.227183 -0.157793 0.197014 0.00761445 0.99997 0.00106976
0.212231 -0.157791 0.190493 0.013283 0.999836 0.0123455
0.195676 -0.157869 0.191676 0.0379774 0.998565 0.0377568
0.177465 -0.157383 0.191701 0.0821865 0.99332 0.0809988
0.158537 -0.155554 0.191926 0.144469 0.978828 0.145
0.139504 -0.151526 0.192131 0.195891 0.960872 0.195837
0.138951 -0.146711 0.173973 0.192024 0.963519 0.186433
-0.387745 -0.149236 0.185781 -0.575865 0.817539 -0.00299299
0.305405 -0.178929 0.20395 0.887666 0.458971 -0.0373459
-0.399733 -0.160784 0.179307 -0.830943 0.556357 0.000139504
-0.405825 -0.176153 0.187833 -0.980143 0.198277 -0.00237362
0.309297 -0.194193 0.193527 0.99921 -0.0220841 -0.0330427
-0.405815 -0.192619 0.195197 -0.981878 -0.188851 -0.0158459
0.304698 -0.208759 0.182497 0.877022 -0.479838 -0.0242629
-0.39994 -0.20815 0.203877 -0.837674 -0.54292 -0.0594972
0.293423 -0.219937 0.188203 0.59661 -0.800938 -0.0505527
0.278594 -0.225859 0.191028 0.306712 -0.949643 -0.0640745
0.262657 -0.228042 0.192559 0.116022 -0.992071 -0.0483127
0.24678 -0.228631 0.195119 0.0292855 -0.998934 -0.0356858
0.22919 -0.228567 0.18984 0.00167338 -0.999848 -0.0173378
0.210251 -0.228581 0.191347 -0.00308249 -0.999971 -0.00701883
0.19211 -0.228581 0.19068 -0.00172429 -0.999996 -0.0022276
0.173807 -0.228581 0.190926 -0.000262606 -1 -0.000266447
0.154976 -0.228581 0.192658 7.3232e-005 -1 5.0267e-005
0.136596 -0.228581 0.188191 6.90684e-006 -1 4.63754e-006
0.120113 -0.228581 0.19039 -2.43628e-017 -1 3.17672e-017
0.103021 -0.228581 0.191206 8.51999e-017 -1 -1.57623e-017
0.0855578 -0.228581 0.191305 -1.02475e-016 -1 -1.56016e-016
0.0679111 -0.228581 0.191396 -1.33712e-016 -1 1.70926e-016
0.0502903 -0.228581 0.191483 1.06022e-016 -1 -9.36619e-017
0.032625 -0.228581 0.191509 -1.40522e-016 -1 -1.7972e-016
0.0149357 -0.228581 0.191525 -9.6687e-017 -1 -1.16374e-016
-0.00275044 -0.228581 0.191541 -1.98176e-017 -1 -6.48218e-017
-0.0204407 -0.228581 0.191545 2.06681e-016 -1 6.36905e-017
-0.0381373 -0.228581 0.191545 3.37514e-017 -1 6.70863e-017
-0.0558327 -0.228581 0.191545 -9.2361e-017 -1 1.72019e-016
-0.0735293 -0.228581 0.191545 5.18861e-017 -1 1.70305e-016
-0.0912248 -0.228581 0.191545 4.86064e-017 -1 3.41373e-017
-0.108921 -0.228581 0.191545 4.69689e-017 -1 -1.88604e-016
-0.126617 -0.228581 0.191545 4.93933e-017 -1 1.46109e-016
-0.144313 -0.228581 0.191545 2.07648e-017 -1 1.71713e-016
-0.16201 -0.228581 0.191545 -0 -1 -0
-0.179705 -0.228581 0.191545 -8.33831e-019 -1 1.60522e-016
-0.197401 -0.228581 0.191545 3.02523e-018 -1 8.20938e-017
-0.215094 -0.228581 0.191546 3.43121e-017 -1 3.66765e-017
-0.232776 -0.228581 0.19155 -1.10219e-017 -1 1.63983e-016
-0.250415 -0.228581 0.191567 -3.47301e-017 -1 5.50018e-017
-0.267949 -0.228581 0.191631 2.83127e-017 -1 -7.22538e-017
-0.285312 -0.228581 0.191903 2.36137e-005 -1 -9.80556e-006
-0.302633 -0.228581 0.193002 0.000684906 -1 -0.000504142
-0.320422 -0.228585 0.196875 0.00168456 -0.999937 -0.0111255
-0.33806 -0.228586 0.188393 -0.0315055 -0.999422 -0.0127764
-0.354977 -0.228086 0.192823 -0.117979 -0.992674 -0.0260474
-0.371957 -0.225842 0.194552 -0.296334 -0.953752 -0.0504213
-0.387736 -0.219656 0.197985 -0.579193 -0.813348 -0.0547743
0.400453 0.843399 0.180458 0.492309 0.851846 0.178857
0.397031 0.852507 0.163364 -0.234842 -0.969358 -0.0720699
0.386866 0.850508 0.171618 0.568808 -0.81925 0.0727079
0.37926 0.840573 0.16404 0.696733 -0.697733 0.166526
0.411429 0.827333 0.161116 0.863226 0.427836 0.26795
0.406341 0.828991 0.177541 0.808527 0.459511 0.367606
0.374263 0.826804 0.168721 0.910367 -0.380146 0.163466
0.409499 0.813255 0.175671 0.925557 0.266501 0.268926
0.372362 0.811661 0.171564 0.946724 -0.24173 0.21279
0.410761 0.797595 0.173129 0.983156 0.0400429 0.178325
0.371555 0.795192 0.173235 0.980332 -0.0310608 0.194896
0.411285 0.780547 0.171954 0.985875 0.00368055 0.167439
0.371234 0.777302 0.175457 0.991242 -0.0173943 0.130909
0.411019 0.763782 0.173037 0.986035 -0.00700967 0.166389
0.371704 0.756906 0.172619 0.991828 -0.00516945 0.127476
0.410905 0.746455 0.173507 0.986363 -0.0114336 0.164187
0.371585 0.738668 0.173306 0.994792 0.0299763 0.0974221
0.410897 0.728594 0.17354 0.977558 -0.0722904 0.197876
0.371556 0.720918 0.173479 0.991332 -0.00795539 0.131141
0.410891 0.710827 0.173564 0.977406 -0.0734934 0.198183
0.371575 0.703134 0.173362 0.991848 -0.00959854 0.127064
0.41089 0.693104 0.173568 0.977347 -0.0749542 0.197924
0.371579 0.685407 0.173343 0.991827 -0.00883656 0.127281
0.41089 0.675402 0.173569 0.977314 -0.0756204 0.197835
0.371579 0.667703 0.17334 0.991809 -0.00825585 0.127465
0.41089 0.657704 0.173569 0.977295 -0.0759031 0.197823
0.371579 0.650005 0.17334 0.991813 -0.0078509 0.127459
0.410889 0.640004 0.173572 0.977286 -0.0760788 0.197799
0.371579 0.632301 0.173342 0.991847 -0.00732911 0.127222
0.410885 0.622297 0.173592 0.977397 -0.0759419 0.197302
0.371579 0.61458 0.173343 0.991945 -0.00696341 0.126479
0.410889 0.60461 0.173575 0.977137 -0.077535 0.197968
0.371593 0.596814 0.173259 0.991352 -0.00881195 0.130931
0.410911 0.586831 0.173485 0.976227 -0.0798 0.201525
0.371513 0.578791 0.173751 0.983619 0.052313 0.1725
0.410909 0.568836 0.173486 0.977839 -0.0738552 0.195901
0.37169 0.56183 0.172663 0.992469 -0.010062 0.122086
0.410704 0.550363 0.174341 0.97289 -0.0377296 0.228172
0.371893 0.544341 0.171541 0.978365 0.0424317 0.202487
0.410548 0.532825 0.175003 0.970885 -0.020122 0.238698
0.372099 0.528908 0.170431 0.984563 -0.0283887 0.172712
0.410857 0.515373 0.173622 0.976757 -0.0618601 0.205229
0.371521 0.515329 0.174254 0.987018 0.034397 0.156882
0.41066 0.498613 0.17109 0.953002 -0.229065 0.198284
0.371363 0.500873 0.176861 0.984701 0.128245 0.117974
0.409396 0.482678 0.166069 0.868483 -0.469019 0.160494
0.372067 0.48689 0.181727 0.912265 0.399814 0.0889979
0.404466 0.46822 0.1682 0.536342 -0.838082 0.0997772
0.377657 0.472748 0.180541 0.689795 0.716277 0.105501
0.388961 0.461914 0.172307 0.0762625 -0.994149 0.0764949
0.121394 -0.142807 0.174116 0.156042 0.975333 0.15613
0.103609 -0.140778 0.174027 0.0923683 0.991431 0.0923715
0.0858121 -0.140099 0.173925 0.036307 0.998681 0.0363097
0.0680647 -0.140097 0.173874 0.00831927 0.999931 0.00831998
0.0503506 -0.140097 0.173856 2.5585e-005 1 2.55882e-005
0.0326488 -0.140097 0.173852 7.35532e-018 1 6.83835e-017
0.0149523 -0.140097 0.17385 2.24041e-017 1 -1.10642e-016
-0.00274421 -0.140097 0.17385 -5.30334e-018 1 1.65471e-016
-0.0204407 -0.140097 0.17385 -7.58375e-017 1 -1.31692e-020
-0.0381362 -0.140097 0.17385 0 1 0
-0.0558327 -0.140097 0.17385 1.25071e-016 1 -5.35356e-017
-0.0735282 -0.140097 0.17385 1.91486e-019 1 -1.33114e-017
-0.0912248 -0.140097 0.17385 1.29563e-016 1 -1.35043e-017
-0.108921 -0.140097 0.17385 1.53181e-019 1 -1.62643e-017
-0.126617 -0.140097 0.17385 1.05798e-017 1 6.45808e-017
-0.144313 -0.140097 0.17385 -4.82242e-017 1 2.06529e-016
-0.162009 -0.140097 0.17385 -4.76446e-017 1 4.66659e-017
-0.1797 -0.140097 0.173845 7.84373e-017 1 -1.26159e-016
-0.197392 -0.140097 0.173839 6.28983e-017 1 -1.37377e-016
-0.215062 -0.140097 0.17382 1.67125e-016 1 3.37404e-017
-0.232631 -0.140097 0.173742 6.97746e-017 1 5.67779e-017
-0.249922 -0.140097 0.17332 9.77247e-017 1 -1.37101e-016
-0.267495 -0.140097 0.171245 -1.49121e-016 1 9.28899e-017
-0.28509 -0.140097 0.175457 4.35046e-017 1 5.07769e-017
-0.302888 -0.140097 0.172135 8.83728e-005 1 2.07826e-006
-0.320748 -0.140097 0.168092 -0.00573287 0.999984 4.31641e-005
-0.338478 -0.140088 0.179257 -0.0361097 0.999347 -0.00136264
-0.355756 -0.140669 0.174661 -0.125505 0.99209 -0.00258337
-0.372338 -0.142991 0.17186 -0.307403 0.951579 -0.000643837
0.293313 -0.166605 0.179595 0.596457 0.802639 0.00315432
0.278079 -0.160612 0.176109 0.305966 0.952042 0.000518814
0.261795 -0.158367 0.173429 0.125156 0.992129 0.00409307
0.244801 -0.15779 0.168573 0.0397419 0.999197 0.00501594
0.2278 -0.15779 0.178399 0.0164399 0.999818 0.00968802
0.209817 -0.157799 0.173973 0.0414559 0.998198 0.0433916
0.192135 -0.157151 0.173815 0.0889528 0.991844 0.0912851
0.174119 -0.155164 0.173902 0.14657 0.978821 0.14292
0.156453 -0.15125 0.173965 0.190332 0.965228 0.179189
0.156649 -0.146716 0.156296 0.198493 0.960137 0.196821
-0.387747 -0.149237 0.168094 -0.575883 0.817527 -0.00302798
0.304992 -0.17823 0.185455 0.884466 0.466538 -0.00791198
-0.399731 -0.160781 0.161616 -0.830926 0.556382 0.000134778
-0.405823 -0.176145 0.170158 -0.980538 0.19633 -9.84182e-005
0.309233 -0.193422 0.1747 0.999945 -0.00802693 -0.00668924
-0.405809 -0.192602 0.177563 -0.980511 -0.196446 -0.00277578
0.304748 -0.208557 0.163783 0.878867 -0.47703 -0.00585324
-0.399666 -0.208022 0.186232 -0.83097 -0.556061 -0.0169095
0.29332 -0.219758 0.169412 0.595116 -0.803523 -0.0137234
0.278352 -0.225685 0.172704 0.309954 -0.950492 -0.0222069
0.262106 -0.227983 0.174924 0.120282 -0.992634 -0.0145211
0.245061 -0.228585 0.178897 0.0340599 -0.999373 -0.00966336
0.22761 -0.228582 0.169362 0.00632606 -0.999979 -0.00153488
0.213148 -0.22858 0.175601 -0.000526909 -0.999999 -0.00150364
0.196302 -0.228581 0.173477 -5.41709e-005 -1 -0.00010882
0.17824 -0.228581 0.173496 1.83173e-005 -1 7.46082e-005
0.15998 -0.228581 0.173757 3.87799e-006 -1 8.14212e-006
0.141897 -0.228581 0.173295 6.01325e-017 -1 -1.17734e-016
0.121984 -0.228581 0.171923 1.10884e-016 -1 1.05293e-016
0.103406 -0.228581 0.173577 2.95429e-017 -1 8.73587e-018
0.0856553 -0.228581 0.173759 -1.29195e-017 -1 8.92389e-017
0.0680024 -0.228581 0.173805 7.12477e-017 -1 1.25312e-016
0.0503256 -0.228581 0.173828 -1.94522e-016 -1 1.41752e-016
0.0326405 -0.228581 0.173841 4.48448e-017 -1 -2.15048e-016
0.0149492 -0.228581 0.173847 3.60104e-017 -1 1.91746e-016
-0.00274525 -0.228581 0.173849 -7.52566e-018 -1 -1.72651e-017
-0.0204407 -0.228581 0.17385 7.03129e-017 -1 5.89515e-017
-0.0381362 -0.228581 0.17385 -3.33007e-016 -1 2.32549e-016
-0.0558327 -0.228581 0.17385 1.5693e-016 -1 3.1068e-016
-0.0735282 -0.228581 0.17385 7.65905e-020 -1 8.12287e-018
-0.0912248 -0.228581 0.17385 -1.7571e-016 -1 3.6923e-016
-0.108921 -0.228581 0.17385 3.82972e-019 -1 2.39055e-017
-0.126617 -0.228581 0.17385 -4.67123e-017 -1 -2.08991e-017
-0.144313 -0.228581 0.17385 -5.16138e-017 -1 -1.37734e-018
-0.162009 -0.228581 0.17385 1.3367e-016 -1 -7.94337e-017
-0.179705 -0.228581 0.17385 -2.37211e-018 -1 7.17436e-017
-0.197401 -0.228581 0.17385 -4.27258e-018 -1 4.73901e-017
-0.215095 -0.228581 0.17385 1.56324e-017 -1 3.71491e-017
-0.232778 -0.228581 0.173855 1.04655e-016 -1 5.89242e-017
-0.250427 -0.228581 0.173869 -1.47462e-016 -1 -8.18726e-018
-0.267991 -0.228581 0.173931 2.61608e-017 -1 -5.86041e-017
-0.285423 -0.228581 0.17422 2.08728e-017 -1 2.30715e-017
-0.302831 -0.228581 0.175449 9.40903e-005 -1 -1.16612e-005
-0.320525 -0.228581 0.179527 -0.00521159 -0.999986 -0.000446145
-0.338282 -0.228593 0.169493 -0.0350253 -0.999386 0.000579458
-0.355262 -0.228052 0.174214 -0.123474 -0.992348 0.000711535
-0.371873 -0.225813 0.176504 -0.299943 -0.953915 -0.00899068
-0.387541 -0.219581 0.179989 -0.573442 -0.819171 -0.0110934
0.393804 0.852507 0.148946 0.233104 -0.969819 0.0715062
0.411574 0.840572 0.148275 0.696645 0.697767 0.166752
0.40662 0.842795 0.162662 0.59744 0.787671 0.150464
0.384214 0.842792 0.149647 0.597698 -0.787455 0.150571
0.379408 0.827331 0.151189 0.863277 -0.427716 0.267979
0.414222 0.812245 0.158114 0.927066 0.246129 0.282789
0.376615 0.812246 0.154195 0.927093 -0.246448 0.282421
0.415313 0.796103 0.156379 0.975967 0.0383908 0.214508
0.375523 0.796112 0.155936 0.97575 -0.0392617 0.215339
0.415651 0.779114 0.155146 0.986829 -0.00786595 0.161576
0.375194 0.779133 0.157127 0.986551 0.00695314 0.163308
0.415499 0.761887 0.155788 0.983617 0.00469722 0.180212
0.37535 0.761907 0.156469 0.983457 -0.00425274 0.181091
0.415323 0.743565 0.156514 0.981555 0.0125215 0.190771
0.375519 0.743541 0.155772 0.98688 -0.000939644 0.161455
0.415337 0.725625 0.156458 0.980323 0.0110963 0.197088
0.375489 0.725619 0.155892 0.980384 -0.0116606 0.196751
0.415335 0.70785 0.156464 0.980082 0.00968949 0.198357
0.375487 0.707874 0.1559 0.980006 -0.00899868 0.198765
0.415334 0.690132 0.156469 0.980115 0.00845095 0.198249
0.375494 0.690148 0.155877 0.98012 -0.00829045 0.198232
0.415334 0.672431 0.15647 0.980128 0.00793666 0.198209
0.375495 0.672445 0.155874 0.980113 -0.00782072 0.198287
0.415334 0.654733 0.156471 0.980132 0.00771545 0.198197
0.375495 0.654747 0.155873 0.980116 -0.00755469 0.198283
0.415333 0.637035 0.156473 0.98016 0.00748402 0.198069
0.375495 0.637049 0.155873 0.980141 -0.00719684 0.198172
0.415334 0.619333 0.156469 0.980169 0.00645403 0.198057
0.375495 0.619345 0.155874 0.980164 -0.00651027 0.198081
0.41534 0.601598 0.156443 0.980358 0.00489408 0.197164
0.375498 0.601615 0.155858 0.979866 -0.00569675 0.199577
0.415371 0.583783 0.156315 0.980687 0.00420316 0.19554
0.375469 0.583795 0.155981 0.980269 -0.00376972 0.197632
0.415266 0.566031 0.156753 0.980297 0.0138963 0.197042
0.375569 0.566048 0.15556 0.980029 -0.0146494 0.198317
0.415104 0.548519 0.157418 0.967354 -0.0107444 0.2532
0.375726 0.548566 0.154915 0.967061 0.0110534 0.254303
0.414946 0.531287 0.158043 0.97149 -0.00962905 0.236885
0.375878 0.531323 0.154313 0.971376 0.00959529 0.237352
0.41525 0.514366 0.1563 0.985771 -0.0539526 0.159201
0.37557 0.514383 0.156073 0.986171 0.0539794 0.156694
0.415323 0.498837 0.153278 0.946224 -0.262154 0.189565
0.375502 0.498831 0.159079 0.946752 0.262534 0.186377
0.414747 0.484627 0.146907 0.899152 -0.416382 0.13473
0.376086 0.484592 0.165454 0.899021 0.417336 0.132637
0.409753 0.471267 0.151249 0.681211 -0.721214 0.125705
0.381083 0.471245 0.161139 0.680072 0.722682 0.123424
0.401106 0.460276 0.15754 0.478101 -0.872038 0.10473
0.389731 0.460271 0.154808 0.478048 0.872008 0.105223
0.139092 -0.142807 0.15642 0.156286 0.975342 0.15583
0.121306 -0.140778 0.156331 0.0923784 0.99143 0.0923746
0.103508 -0.140099 0.156229 0.0363046 0.998681 0.0363054
0.0857602 -0.140097 0.156178 0.0083186 0.999931 0.00831885
0.068046 -0.140097 0.15616 2.55846e-005 1 2.55851e-005
0.0503454 -0.140097 0.156155 2.2696e-017 1 2.00585e-016
0.0326478 -0.140097 0.156154 1.90854e-018 1 1.64853e-017
0.0149523 -0.140097 0.156154 8.50197e-018 1 -1.20022e-016
-0.00274421 -0.140097 0.156154 -5.16047e-018 1 -2.85874e-017
-0.0204407 -0.140097 0.156154 9.29809e-017 1 -1.00101e-017
-0.0381362 -0.140097 0.156154 -9.9748e-017 1 1.09448e-017
-0.0558327 -0.140097 0.156154 -8.88018e-017 1 3.04444e-016
-0.0735282 -0.140097 0.156154 -7.10255e-017 1 3.04421e-016
-0.0912248 -0.140097 0.156154 1.81419e-016 1 4.06265e-016
-0.108921 -0.140097 0.156154 1.95008e-017 1 3.04474e-016
-0.126617 -0.140097 0.156154 2.50378e-016 1 -1.77699e-017
-0.144313 -0.140097 0.156154 2.50536e-016 1 1.75911e-017
-0.162009 -0.140097 0.156154 -9.07479e-018 1 -1.19764e-016
-0.179705 -0.140097 0.156154 7.46316e-017 1 -1.79803e-017
-0.197399 -0.140097 0.156152 1.44911e-016 1 2.15213e-016
-0.215081 -0.140097 0.156141 -9.8182e-017 1 -7.93505e-017
-0.232719 -0.140097 0.156078 6.88819e-017 1 3.04331e-017
-0.250273 -0.140097 0.155883 5.88987e-017 1 -1.12895e-016
-0.26719 -0.140097 0.154977 -4.6842e-017 1 2.8079e-016
-0.284874 -0.140097 0.156487 -1.78218e-017 1 -3.30016e-017
-0.30301 -0.140097 0.154427 8.88869e-005 1 3.23308e-006
-0.320748 -0.140097 0.150396 -0.00570053 0.999984 4.80968e-005
-0.338481 -0.140088 0.16156 -0.0360594 0.999349 -0.0013335
-0.355757 -0.140669 0.156967 -0.125479 0.992093 -0.00256903
-0.372338 -0.142991 0.154167 -0.307394 0.951582 -0.000643895
0.293245 -0.16656 0.161597 0.594212 0.804299 0.00396027
0.278107 -0.160619 0.158192 0.309129 0.951011 0.00425988
0.261791 -0.158366 0.155595 0.127478 0.991823 0.00602036
0.244562 -0.157758 0.151044 0.0563583 0.998189 0.0210386
0.227002 -0.157875 0.160577 0.0410972 0.998537 0.0351334
0.209266 -0.157142 0.156556 0.0905722 0.991978 0.0881855
0.19167 -0.155107 0.156005 0.147993 0.977607 0.149608
0.174116 -0.151205 0.156111 0.184455 0.964356 0.189722
0.174359 -0.146717 0.138591 0.19925 0.959482 0.199235
-0.387746 -0.149236 0.1504 -0.575855 0.817546 -0.00303301
0.304813 -0.177924 0.1672 0.880769 0.473546 0.000717345
-0.39973 -0.160779 0.143921 -0.830911 0.556406 0.000128581
-0.405821 -0.176136 0.152463 -0.980525 0.196395 -4.2896e-005
0.309232 -0.193232 0.15645 0.999997 -0.00249408 -0.000723091
-0.405815 -0.19258 0.159869 -0.980421 -0.196915 -3.99104e-005
0.304751 -0.208555 0.145677 0.879056 -0.476716 -0.00186567
-0.399672 -0.207986 0.168493 -0.830053 -0.55768 -0.002218
0.293241 -0.219817 0.151189 0.594045 -0.804416 -0.00504322
0.278145 -0.225745 0.15459 0.308964 -0.951055 -0.00591353
0.261796 -0.228007 0.15716 0.1227 -0.992435 -0.00426431
0.244633 -0.228587 0.16151 0.0352149 -0.999379 -0.0016001
0.226452 -0.228581 0.151151 0.00573201 -0.999984 -0.000119184
0.208109 -0.228581 0.157301 -2.90431e-005 -1 7.42763e-005
0.187792 -0.228581 0.156015 -8.89153e-007 -1 1.34888e-006
0.170175 -0.228581 0.155686 5.5044e-017 -1 9.36989e-017
0.152303 -0.228581 0.155674 -5.0856e-017 -1 1.48524e-017
0.135371 -0.228581 0.155661 -7.60406e-017 -1 1.14731e-016
0.11883 -0.228581 0.154372 -1.3342e-017 -1 1.7973e-018
0.103082 -0.228581 0.155917 -1.54491e-016 -1 2.80437e-017
0.0856865 -0.228581 0.156114 -7.02247e-017 -1 5.12335e-017
0.0680253 -0.228581 0.156139 -1.14183e-017 -1 -1.13273e-016
0.0503391 -0.228581 0.156149 -2.04731e-017 -1 -1.30006e-017
0.0326468 -0.228581 0.156152 3.8443e-017 -1 8.49915e-018
0.0149513 -0.228581 0.156154 8.46209e-017 -1 7.72913e-018
-0.00274421 -0.228581 0.156154 -2.89715e-017 -1 1.59133e-016
-0.0204407 -0.228581 0.156154 -3.53448e-019 -1 7.75686e-018
-0.0381362 -0.228581 0.156154 1.5403e-016 -1 3.63697e-016
-0.0558327 -0.228581 0.156154 6.46488e-017 -1 -8.29408e-017
-0.0735282 -0.228581 0.156154 -5.14874e-016 -1 -8.29608e-017
-0.0912248 -0.228581 0.156154 2.14512e-016 -1 1.78193e-016
-0.108921 -0.228581 0.156154 -8.4592e-017 -1 -8.28911e-017
-0.126617 -0.228581 0.156154 -8.34364e-017 -1 1.10619e-017
-0.144313 -0.228581 0.156154 9.12366e-017 -1 -8.30163e-017
-0.162009 -0.228581 0.156154 -2.65167e-016 -1 -1.13845e-016
-0.179705 -0.228581 0.156154 -3.64254e-017 -1 -4.93334e-016
-0.197401 -0.228581 0.156154 -5.31269e-017 -1 -8.08325e-017
-0.215095 -0.228581 0.156155 -2.10871e-017 -1 7.43122e-017
-0.232779 -0.228581 0.156158 -2.32603e-016 -1 1.59707e-016
-0.250435 -0.228581 0.156174 -1.28239e-016 -1 -9.45885e-017
-0.268019 -0.228581 0.156238 5.54824e-017 -1 2.82477e-017
-0.285499 -0.228581 0.156539 -1.86449e-017 -1 -8.45598e-017
-0.302984 -0.228581 0.157843 0.000101683 -1 -1.93451e-005
-0.320713 -0.228581 0.161923 -0.00575513 -0.999983 0.000152542
-0.338454 -0.228589 0.151195 -0.0356203 -0.999365 0.00113896
-0.355547 -0.228027 0.155953 -0.123414 -0.992352 0.00265719
-0.372052 -0.225764 0.158558 -0.303204 -0.952926 0.000283806
-0.387577 -0.219551 0.16213 -0.572943 -0.819593 0.00178941
0.403967 0.850509 0.140707 0.570466 0.81802 0.0735605
0.390371 0.843387 0.131858 0.493347 -0.851121 0.17945
0.41657 0.826801 0.143604 0.910302 0.380158 0.163801
0.384498 0.828978 0.134747 0.808574 -0.459504 0.367509
0.418469 0.811646 0.140778 0.946959 0.240488 0.213153
0.381343 0.813247 0.136609 0.925513 -0.266878 0.268705
0.419278 0.795137 0.139096 0.980441 0.0296077 0.194571
0.380081 0.797596 0.139159 0.983142 -0.0399104 0.178436
0.419632 0.77712 0.136661 0.993518 0.0199409 0.11191
0.379551 0.780561 0.140352 0.985695 -0.00347682 0.168504
0.41917 0.756963 0.139474 0.991799 0.00592644 0.127667
0.37982 0.763784 0.139265 0.985904 0.00679804 0.167171
0.419243 0.738684 0.139054 0.991443 0.0147798 0.129699
0.379935 0.746463 0.138784 0.986178 0.0112917 0.165305
0.419252 0.720809 0.138997 0.991692 0.0120175 0.128071
0.379942 0.72861 0.138761 0.977444 0.0729739 0.198189
0.419251 0.703059 0.139005 0.991778 0.0104002 0.127548
0.379936 0.710839 0.138779 0.977392 0.0741184 0.19802
0.41925 0.685349 0.139007 0.991798 0.00967375 0.127446
0.379937 0.69312 0.138777 0.977269 0.0756838 0.198034
0.41925 0.667651 0.139008 0.991805 0.00932821 0.12742
0.379938 0.675416 0.138774 0.977246 0.0762348 0.197936
0.41925 0.649953 0.139008 0.99181 0.0090587 0.127402
0.379938 0.657719 0.138774 0.977222 0.076491 0.197957
0.419251 0.632248 0.139006 0.991818 0.00851605 0.127374
0.379938 0.640021 0.138773 0.97721 0.0766764 0.197941
0.419252 0.61451 0.138995 0.991854 0.00807208 0.127123
0.379938 0.62232 0.138773 0.977156 0.0770694 0.198056
0.419266 0.596684 0.138916 0.99193 0.00871225 0.126487
0.37994 0.6046 0.138768 0.976879 0.0779666 0.199069
0.419333 0.578777 0.138505 0.991497 0.0176032 0.128936
0.379933 0.586813 0.138794 0.976293 0.0794054 0.201362
0.419141 0.561762 0.13967 0.991826 0.0114971 0.127081
0.379938 0.568867 0.138773 0.977552 0.0753475 0.196762
0.418955 0.544305 0.140699 0.978726 -0.0409776 0.201038
0.380133 0.550444 0.137967 0.972443 0.0375728 0.230093
0.418743 0.528905 0.141841 0.9846 0.0287245 0.172449
0.380253 0.532945 0.137452 0.970521 0.0200185 0.240185
0.419329 0.515342 0.137973 0.987094 -0.0341602 0.156454
0.379913 0.515474 0.138958 0.976637 0.0600244 0.206344
0.419488 0.500927 0.135381 0.983151 -0.151699 0.101991
0.380107 0.498666 0.141483 0.973709 0.133622 0.184489
0.418779 0.486931 0.130583 0.912193 -0.400136 0.0882897
0.381399 0.482675 0.146409 0.868075 0.470405 0.158633
0.413201 0.47281 0.131926 0.693185 -0.71262 0.108016
0.38634 0.468218 0.144199 0.535948 0.838526 0.0981478
0.401886 0.461906 0.14009 0.0759446 0.994104 0.0773986
0.156789 -0.142808 0.138724 0.156595 0.975179 0.156539
0.139002 -0.140778 0.138635 0.0923795 0.99143 0.0923757
0.121204 -0.140099 0.138533 0.036311 0.998681 0.0363084
0.103457 -0.140097 0.138482 0.00831899 0.999931 0.00831906
0.0857426 -0.140097 0.138464 2.55843e-005 1 2.55843e-005
0.0680419 -0.140097 0.13846 2.31408e-017 1 2.03804e-016
0.0503443 -0.140097 0.138458 -2.23785e-017 1 2.98467e-017
0.0326478 -0.140097 0.138457 -2.69105e-017 1 -9.87046e-018
0.0149523 -0.140097 0.138457 2.202e-017 1 8.1167e-017
-0.00274421 -0.140097 0.138457 -1.02784e-016 1 -6.50871e-018
-0.0204407 -0.140097 0.138457 4.78537e-021 1 2.71164e-019
-0.0381362 -0.140097 0.138457 -3.32512e-016 1 -4.17215e-017
-0.0558327 -0.140097 0.138457 1.57148e-016 1 -1.19773e-016
-0.0735282 -0.140097 0.138457 1.91414e-020 1 -1.09394e-018
-0.0912248 -0.140097 0.138457 -1.75467e-016 1 -1.78309e-016
-0.108921 -0.140097 0.138457 2.87123e-020 1 1.61305e-018
-0.126617 -0.140097 0.138457 -5.62216e-017 1 -1.00254e-016
-0.144313 -0.140097 0.138457 -1.70435e-016 1 -4.17276e-017
-0.162009 -0.140097 0.138457 1.65517e-017 1 1.56447e-016
-0.179705 -0.140097 0.138457 3.81083e-017 1 1.44045e-017
-0.197401 -0.140097 0.138457 -3.2745e-017 1 -1.65106e-016
-0.215091 -0.140097 0.138452 1.10031e-016 1 -1.29106e-016
-0.232777 -0.140097 0.138445 -1.46404e-016 1 1.39545e-016
-0.250435 -0.140097 0.138431 -8.93142e-018 1 1.03085e-016
-0.268022 -0.140097 0.138374 -5.1575e-017 1 -2.18626e-016
-0.285508 -0.140097 0.138072 -1.43652e-017 1 -2.41953e-017
-0.303011 -0.140097 0.136731 9.14867e-005 1 9.32503e-006
-0.320748 -0.140097 0.132699 -0.00594765 0.999982 -0.000284068
-0.338481 -0.140088 0.143864 -0.0360238 0.99935 -0.00131498
-0.355757 -0.140669 0.139271 -0.125479 0.992093 -0.00257139
-0.372338 -0.142991 0.13647 -0.307391 0.951583 -0.000649141
0.293233 -0.166552 0.143769 0.593697 0.804679 0.00394381
0.278154 -0.160632 0.140429 0.311987 0.950064 0.00645911
0.261916 -0.158376 0.138061 0.140981 0.989824 0.0193246
0.244762 -0.157663 0.133774 0.0935835 0.99395 0.0574916
0.226973 -0.157388 0.142256 0.0861223 0.992956 0.0813754
0.209441 -0.155167 0.138598 0.142816 0.97885 0.14648
0.191882 -0.151211 0.138372 0.189596 0.964373 0.184493
0.192059 -0.14672 0.120897 0.196654 0.960182 0.198436
-0.387745 -0.149236 0.132703 -0.575841 0.817556 -0.00303953
0.304767 -0.177844 0.149241 0.879641 0.475636 0.00154618
-0.399729 -0.160778 0.126224 -0.830901 0.55642 0.000129552
-0.405821 -0.176131 0.134764 -0.980509 0.196473 -4.42087e-005
0.309232 -0.193196 0.138536 1 -0.00054527 -4.12179e-005
-0.405817 -0.192564 0.142163 -0.980472 -0.196657 7.59167e-005
0.304751 -0.208556 0.127833 0.87932 -0.476228 -0.00171987
-0.399695 -0.207951 0.150752 -0.830445 -0.557101 -0.000246102
0.293207 -0.219839 0.133277 0.593657 -0.804708 -0.00401684
0.278063 -0.225767 0.136674 0.304115 -0.952625 -0.00445077
0.261653 -0.228019 0.139374 0.122949 -0.992409 -0.00279544
0.244365 -0.228591 0.143964 0.0355344 -0.999367 -0.00153692
0.22684 -0.228581 0.132914 0.00589615 -0.999983 0.000196327
0.209744 -0.228581 0.137949 -9.12405e-005 -1 6.31209e-006
0.193838 -0.228581 0.141236 3.31489e-006 -1 3.80965e-006
0.175265 -0.228581 0.136384 1.42766e-016 -1 -6.294e-017
0.158191 -0.228581 0.139515 -1.14957e-016 -1 -1.11304e-016
0.139714 -0.228581 0.136663 3.85799e-017 -1 -4.85325e-017
0.122435 -0.228581 0.139142 4.70931e-017 -1 -3.96961e-017
0.104144 -0.228581 0.137174 -1.53769e-016 -1 -4.68677e-017
0.0858007 -0.228581 0.138439 1.30488e-017 -1 -7.6758e-017
0.0680357 -0.228581 0.138452 -1.0926e-017 -1 5.59876e-017
0.0503423 -0.228581 0.138456 2.08987e-017 -1 -1.8827e-016
0.0326478 -0.228581 0.138457 4.41523e-017 -1 -1.52855e-016
0.0149513 -0.228581 0.138457 -3.57245e-017 -1 1.97867e-017
-0.00274421 -0.228581 0.138457 1.91808e-017 -1 -3.93045e-016
-0.0204407 -0.228581 0.138457 -3.63362e-017 -1 2.97141e-017
-0.0381362 -0.228581 0.138457 3.04486e-016 -1 -6.50816e-018
-0.0558327 -0.228581 0.138457 1.57166e-016 -1 -2.60217e-017
-0.0735282 -0.228581 0.138457 1.91414e-020 -1 -1.09394e-018
-0.0912248 -0.228581 0.138457 1.28913e-016 -1 7.154e-017
-0.108921 -0.228581 0.138457 3.82831e-020 -1 2.15074e-018
-0.126617 -0.228581 0.138457 -5.624e-017 -1 -6.50299e-018
-0.144313 -0.228581 0.138457 1.24017e-016 -1 -6.50479e-017
-0.162009 -0.228581 0.138457 -1.75288e-016 -1 -2.21055e-017
-0.179705 -0.228581 0.138457 1.34626e-016 -1 -7.76309e-017
-0.197401 -0.228581 0.138458 -1.03106e-017 -1 8.89989e-017
-0.215095 -0.228581 0.138458 2.89965e-016 -1 2.54794e-018
-0.232779 -0.228581 0.138463 3.9169e-017 -1 -1.59999e-016
-0.250435 -0.228581 0.138478 1.60335e-016 -1 -5.99094e-017
-0.268022 -0.228581 0.138543 5.94203e-017 -1 -2.99055e-017
-0.285511 -0.228581 0.138847 -1.61142e-017 -1 7.25301e-017
-0.30302 -0.228581 0.14018 8.065e-005 -1 -8.34494e-006
-0.320776 -0.228581 0.144242 -0.00588192 -0.999983 0.000208077
-0.338492 -0.228589 0.133211 -0.0358817 -0.999355 0.00118949
-0.355702 -0.228013 0.137906 -0.124787 -0.99218 0.00263428
-0.372224 -0.225718 0.14067 -0.30566 -0.952141 0.000709551
-0.387652 -0.219502 0.144341 -0.574087 -0.818789 0.002906
0.414004 0.841722 0.131496 0.640564 0.764874 0.0681597
0.402453 0.849786 0.122846 0.208829 -0.96991 0.12516
0.392378 0.841786 0.112243 0.566958 -0.82109 0.0661104
0.418744 0.827508 0.126242 0.875275 0.471951 0.105623
0.387542 0.828635 0.117255 0.849013 -0.503205 0.161127
0.420787 0.811946 0.123331 0.968098 0.225406 0.109448
0.385168 0.813569 0.119283 0.950785 -0.257419 0.172462
0.421291 0.795563 0.121415 0.993474 0.043996 0.105232
0.384112 0.798215 0.121327 0.981804 -0.0371121 0.186235
0.421651 0.77971 0.115577 0.992282 0.0243112 0.121594
0.383184 0.783761 0.125214 0.987758 0.0319626 0.152685
0.421133 0.764934 0.123047 0.992619 -0.0719757 0.0976082
0.383748 0.767897 0.121973 0.986492 -0.0371713 0.159534
0.421276 0.748472 0.121196 0.999837 -0.0123537 0.0131313
0.383934 0.751295 0.120837 0.975813 -0.0698545 0.207145
0.421287 0.730854 0.121055 0.999367 -0.0195292 0.0297338
0.383866 0.733499 0.121245 0.989784 -0.0239837 0.140542
0.421286 0.713112 0.121065 0.999275 -0.0214341 0.0314513
0.383856 0.715657 0.121303 0.989902 -0.0269558 0.139167
0.421285 0.695389 0.121077 0.999221 -0.0228683 0.0321575
0.383855 0.697906 0.121311 0.989974 -0.0257922 0.138872
0.421285 0.677685 0.121079 0.999194 -0.0236171 0.0324468
0.383855 0.680196 0.121311 0.990006 -0.0249402 0.138802
0.421285 0.659986 0.121079 0.999184 -0.0240379 0.0324657
0.383855 0.662498 0.121311 0.990017 -0.0246062 0.138786
0.421285 0.642283 0.12108 0.999171 -0.0245954 0.0324368
0.383855 0.644801 0.121311 0.990023 -0.0243639 0.138785
0.421285 0.624551 0.121079 0.999144 -0.0256311 0.0324581
0.383855 0.627103 0.121311 0.990038 -0.0237182 0.13879
0.421285 0.606701 0.121074 0.999129 -0.0262283 0.0324502
0.383856 0.609393 0.121308 0.990104 -0.021658 0.138652
0.421298 0.588486 0.120908 0.999192 -0.0195373 0.0351203
0.383856 0.59164 0.121308 0.990261 -0.0158839 0.138316
0.421377 0.569332 0.119807 0.999668 0.00128435 0.0257301
0.383848 0.573763 0.121354 0.989188 -0.00211916 0.146634
0.420983 0.552167 0.124763 0.992962 0.0172067 0.117181
0.383778 0.555458 0.121757 0.974073 -0.0626242 0.217395
0.421073 0.534026 0.123729 0.995398 0.0126166 0.0949878
0.384238 0.535204 0.118973 0.987306 0.003535 0.158787
0.421373 0.517398 0.119959 0.993841 -0.010657 0.110305
0.383779 0.516938 0.121512 0.980507 0.00865201 0.196294
0.421204 0.501332 0.117338 0.992457 -0.119398 0.0278068
0.383979 0.499967 0.123699 0.976513 0.111559 0.184329
0.41936 0.485126 0.115232 0.89576 -0.444522 0.00389486
0.385416 0.484207 0.12776 0.851116 0.520369 0.0694015
0.414718 0.471496 0.112366 0.563022 -0.823795 -0.0660892
0.389617 0.469746 0.130659 0.501143 0.850738 0.15843
0.40373 0.463473 0.12248 0.114389 0.983665 0.138987
0.174481 -0.142807 0.121029 0.156517 0.975187 0.156568
0.156698 -0.140778 0.120939 0.0923879 0.991428 0.0923809
0.1389 -0.140099 0.120837 0.036309 0.998681 0.0363082
0.121152 -0.140097 0.120786 0.00831854 0.999931 0.0083186
0.103439 -0.140097 0.120768 2.55857e-005 1 2.55858e-005
0.0857374 -0.140097 0.120763 2.27378e-017 1 2.0118e-016
0.0680409 -0.140097 0.120762 7.61631e-018 1 6.63592e-017
0.0503443 -0.140097 0.120762 1.30398e-018 1 1.10843e-017
0.0326478 -0.140097 0.120762 2.72216e-017 1 1.18124e-017
0.0149523 -0.140097 0.120762 4.31069e-017 1 -1.34e-016
-0.00274421 -0.140097 0.120762 1.26503e-016 1 1.76449e-016
-0.0204407 -0.140097 0.120762 -1.49037e-016 1 -1.34071e-016
-0.0381362 -0.140097 0.120762 2.52143e-017 1 1.80095e-016
-0.0558327 -0.140097 0.120762 -4.9427e-017 1 1.87401e-016
-0.0735282 -0.140097 0.120762 7.80816e-017 1 -1.34026e-016
-0.0912248 -0.140097 0.120762 1.24903e-016 1 -4.37362e-017
-0.108921 -0.140097 0.120762 -3.89944e-017 1 -1.34099e-016
-0.126617 -0.140097 0.120762 1.91935e-017 1 1.61814e-016
-0.144313 -0.140097 0.120762 2.95011e-019 1 4.20958e-018
-0.162009 -0.140097 0.120762 -1.57636e-017 1 3.68917e-017
-0.179705 -0.140097 0.120762 2.80019e-016 1 -1.13068e-016
-0.197401 -0.140097 0.120762 4.36126e-017 1 -9.00873e-017
-0.215095 -0.140097 0.120761 1.10301e-016 1 8.52249e-017
-0.232779 -0.140097 0.120757 -1.19378e-016 1 1.55875e-016
-0.250435 -0.140097 0.120742 -4.33558e-017 1 4.97131e-018
-0.268021 -0.140097 0.120677 -1.42594e-016 1 -2.74385e-017
-0.285508 -0.140097 0.120373 8.33969e-017 1 -3.85402e-017
-0.303011 -0.140097 0.119035 9.08093e-005 1 9.1989e-006
-0.320748 -0.140097 0.115003 -0.00593119 0.999982 -0.000267002
-0.338481 -0.140088 0.126168 -0.0360232 0.99935 -0.00131571
-0.355757 -0.140669 0.121576 -0.125481 0.992093 -0.00257186
-0.372338 -0.142991 0.118775 -0.307391 0.951583 -0.000651006
0.293211 -0.166538 0.126007 0.59476 0.80388 0.00617314
0.278123 -0.160623 0.12271 0.320369 0.947151 0.016386
0.261958 -0.158361 0.120524 0.173481 0.983595 0.0494495
0.244775 -0.156804 0.11689 0.142717 0.98399 0.106748
0.227133 -0.155595 0.123546 0.149584 0.97827 0.143569
0.20967 -0.151259 0.120783 0.179999 0.96502 0.190623
0.209772 -0.14673 0.103227 0.191095 0.962704 0.191531
-0.387745 -0.149236 0.115007 -0.575841 0.817556 -0.00304338
0.304752 -0.177821 0.131438 0.87942 0.476043 0.00175762
-0.399729 -0.160778 0.108528 -0.830905 0.556415 0.000124473
-0.40582 -0.17613 0.117068 -0.98051 0.19647 -4.27156e-005
0.309232 -0.193181 0.120752 1 0.000142682 -2.30442e-005
-0.405819 -0.192556 0.124461 -0.980496 -0.196541 6.6655e-005
0.304756 -0.208545 0.110071 0.879554 -0.475796 -0.00173565
-0.399712 -0.207926 0.133026 -0.83066 -0.55678 -0.000153381
0.293202 -0.219842 0.115505 0.593671 -0.804697 -0.00408603
0.278045 -0.225771 0.118885 0.307209 -0.951629 -0.00499416
0.261647 -0.22802 0.121603 0.122612 -0.992452 -0.00246373
0.244446 -0.22859 0.1262 0.0352684 -0.999377 -0.00122396
0.226695 -0.228581 0.115061 0.00566979 -0.999984 -0.00024646
0.209091 -0.228581 0.119759 -9.0917e-005 -1 7.28212e-006
0.19157 -0.228581 0.124409 -2.00114e-017 -1 5.50179e-017
0.173361 -0.228581 0.116892 3.29102e-017 -1 6.43957e-017
0.154993 -0.228581 0.121683 -8.78551e-017 -1 -2.89017e-017
0.136623 -0.228581 0.118679 1.09853e-016 -1 1.68585e-017
0.119752 -0.228581 0.121606 9.40954e-017 -1 1.10234e-016
0.101968 -0.228581 0.119334 0 -1 0
0.0855931 -0.228581 0.120731 -1.50806e-017 -1 1.84141e-016
0.0680398 -0.228581 0.120761 -2.57046e-017 -1 -1.14468e-016
0.0503433 -0.228581 0.120761 9.40551e-017 -1 5.93625e-017
0.0326478 -0.228581 0.120762 3.8155e-017 -1 1.08488e-016
0.0149523 -0.228581 0.120762 -8.013e-017 -1 -1.2935e-016
-0.00274421 -0.228581 0.120762 0 -1 0
-0.0204407 -0.228581 0.120762 2.43775e-020 -1 -4.63632e-020
-0.0381362 -0.228581 0.120762 2.54042e-016 -1 -3.79858e-017
-0.0558327 -0.228581 0.120762 1.27016e-016 -1 -5.2574e-017
-0.0735282 -0.228581 0.120762 -3.89929e-017 -1 1.80404e-016
-0.0912248 -0.228581 0.120762 1.58747e-016 -1 -3.85196e-017
-0.108921 -0.228581 0.120762 5.20296e-017 -1 1.80296e-016
-0.126617 -0.228581 0.120762 2.21258e-019 -1 -3.1214e-018
-0.144313 -0.228581 0.120762 2.95011e-019 -1 4.20958e-018
-0.162009 -0.228581 0.120762 -1.09152e-016 -1 2.13162e-017
-0.179705 -0.228581 0.120762 -2.08782e-018 -1 1.76201e-017
-0.197401 -0.228581 0.120762 -5.67897e-018 -1 4.8698e-017
-0.215095 -0.228581 0.120763 3.66573e-017 -1 -8.43035e-017
-0.232779 -0.228581 0.120766 3.65278e-017 -1 -4.50094e-017
-0.250435 -0.228581 0.120782 1.05458e-016 -1 1.15387e-016
-0.268021 -0.228581 0.120846 -1.26727e-016 -1 3.32827e-017
-0.285509 -0.228581 0.121151 1.45113e-016 -1 -3.97092e-017
-0.303015 -0.228581 0.122489 8.05576e-005 -1 -8.03998e-006
-0.320765 -0.228581 0.126536 -0.00593695 -0.999982 0.000249267
-0.338486 -0.228589 0.115401 -0.0359778 -0.999352 0.00125945
-0.355746 -0.228009 0.120036 -0.125284 -0.992118 0.00259773
-0.372305 -0.225697 0.122844 -0.306861 -0.951754 0.00068541
-0.387709 -0.219465 0.126579 -0.575128 -0.818058 0.00300825
0.414798 0.842043 0.114271 0.60123 0.798768 -0.0221631
0.403606 0.849131 0.104162 0.127395 -0.991068 0.0394183
0.392957 0.841244 0.0934239 0.595479 -0.80334 -0.00700705
0.419727 0.827724 0.108701 0.873816 0.486254 0.00149053
0.388623 0.827783 0.0989434 0.876178 -0.481953 0.00577538
0.421533 0.812312 0.105621 0.978311 0.205825 -0.0233018
0.386662 0.812768 0.101543 0.971557 -0.226505 0.069081
0.421986 0.796656 0.102896 0.998202 0.0337006 0.0495629
0.385926 0.797025 0.103812 0.993198 -0.0373326 0.110292
0.422033 0.7802 0.0979882 0.997435 -0.0200953 0.0686982
0.385459 0.780402 0.108595 0.983227 0.0100784 0.182107
0.421942 0.761435 0.104184 0.999631 -0.00819873 0.0258865
0.385966 0.761525 0.102339 0.996545 0.00895423 0.0825708
0.42196 0.741816 0.103271 0.99922 0.0131102 0.0372404
0.385901 0.741879 0.10322 0.994908 -0.0127121 0.099987
0.421963 0.723474 0.103109 0.993543 -0.0977871 0.0575346
0.385889 0.723509 0.103385 0.99757 -0.0633074 0.0290846
0.421963 0.70559 0.103099 0.993063 -0.102792 0.057101
0.385889 0.705612 0.103384 0.98514 0.107946 0.133595
0.421963 0.687849 0.103099 0.992829 -0.104989 0.0571591
0.385889 0.687867 0.103383 0.988419 -0.106058 0.108533
0.421963 0.670144 0.103099 0.992747 -0.105929 0.0568455
0.385889 0.670162 0.103383 0.988453 -0.105868 0.108411
0.421963 0.652445 0.103097 0.992758 -0.106219 0.0561207
0.385889 0.652465 0.103383 0.988476 -0.105716 0.108352
0.421963 0.634743 0.103096 0.992793 -0.105795 0.056294
