ply
format ascii 1.0
element vertex 859
property float x
property float y
property float z
property float nx
property float ny
property float nz
end_header
0.124215 0.045082 0.0551309 0.0300181 0.999338 0.0205541
0.10684 0.0456442 0.0551309 0.0824234 0.994633 0.0625465
0.0894652 0.0474147 0.0551309 0.1525 0.980664 0.122648
0.0720908 0.0512755 0.0551309 0.204192 0.963091 0.175386
0.0720908 0.0552161 0.0377565 0.219085 0.96287 0.157746
-0.227008 0.0510726 0.0590943 -0.143805 0.976312 0.161664
-0.218586 0.0573593 0.0344278 -0.169346 0.97187 0.16368
-0.246078 0.0478961 0.0605251 -0.112252 0.985122 0.130135
-0.260292 0.0471962 0.0567036 -0.101405 0.988215 0.114663
-0.276964 0.0460791 0.055835 -0.0997943 0.990867 0.0906872
-0.29245 0.0447672 0.0549653 -0.120771 0.988776 0.0879595
-0.308451 0.0429305 0.0538761 -0.140824 0.985633 0.0932484
0.332712 0.0219148 0.0551309 0.283413 0.95755 0.0526898
0.315338 0.0258564 0.0551309 0.158283 0.986901 0.0311848
0.297963 0.0273846 0.0551309 0.0687968 0.997556 0.0121969
0.280588 0.0277066 0.0551309 0.0247987 0.999672 0.00640075
0.263213 0.0277066 0.0551309 0.0305856 0.999463 0.011728
0.245838 0.0282698 0.0551309 0.0893371 0.995239 0.038953
0.228464 0.0302007 0.0551309 0.168926 0.982466 0.0788992
0.211089 0.0349458 0.0551309 0.227287 0.967815 0.108046
0.211089 0.0366355 0.0377565 0.232779 0.969254 0.079755
-0.328753 0.039459 0.0516562 -0.175279 0.977892 0.114034
-0.35174 0.0341558 0.0559582 -0.195818 0.973397 0.118971
-0.341487 0.0393885 0.0339743 -0.180508 0.977959 0.104946
-0.368089 0.0302163 0.059731 -0.222827 0.968112 0.114485
-0.38051 0.0284054 0.0563858 -0.27069 0.957997 0.0947024
-0.395012 0.0250126 0.05531 -0.405456 0.909314 0.0935598
0.364514 0.00689166 0.0569656 0.63528 0.762309 0.12371
0.349402 0.0158869 0.0555544 0.442907 0.892477 0.0855468
-0.4089 0.0176263 0.0537383 -0.599603 0.795554 0.0870015
0.377423 -0.00769659 0.0597952 0.850689 0.50521 0.14523
0.375268 0.000655673 0.0434976 0.738121 0.655978 0.157707
-0.428939 -0.0120741 0.0483638 -0.967921 0.246879 0.0466835
0.388755 -0.0292963 0.0393054 0.980808 0.0166817 0.19426
0.385045 -0.0262772 0.0550843 0.980697 0.105947 0.164341
-0.429942 -0.0253433 0.0532103 -0.998974 0.0262735 0.0368965
0.384205 -0.0451156 0.0495369 0.927013 -0.346794 0.142759
-0.42824 -0.0412475 0.05777 -0.962245 -0.271405 0.0205956
0.375127 -0.0601625 0.0482975 0.722606 -0.684348 0.0975103
-0.422127 -0.0559517 0.0647836 -0.820824 -0.571146 0.00636554
0.364473 -0.0677745 0.052497 0.53738 -0.841914 0.0490169
0.349411 -0.0734234 0.0545521 0.293668 -0.95582 0.0128983
0.332712 -0.0759021 0.0551309 0.123592 -0.992332 0.00160839
0.315338 -0.076545 0.0551309 0.0396034 -0.999215 0.000933303
0.297962 -0.076545 0.0551309 0.00484598 -0.999988 -5.7122e-009
0.280588 -0.076545 0.0551309 0 -1 0
0.263213 -0.076545 0.0551309 0 -1 0
0.245838 -0.076545 0.0551309 -0 -1 -0
0.228464 -0.076545 0.0551309 1.18371e-017 -1 -7.43135e-018
0.211089 -0.076545 0.0551309 -7.96401e-017 -1 -1.26921e-017
0.193714 -0.076545 0.0551309 8.49484e-017 -1 2.00599e-017
0.176339 -0.076545 0.0551309 1.17518e-017 -1 7.43526e-018
0.158964 -0.076545 0.0551309 -3.78864e-019 -1 -1.27046e-017
0.141589 -0.076545 0.0551309 1.01962e-016 -1 5.57368e-018
0.124215 -0.076545 0.0551309 -2.71335e-017 -1 6.57419e-017
0.10684 -0.076545 0.0551309 -0 -1 -0
0.0894652 -0.076545 0.0551309 -1.26795e-017 -1 5.57335e-018
0.0720908 -0.076545 0.0551309 0 -1 0
0.0547154 -0.076545 0.0551309 -1.71095e-017 -1 2.10005e-017
0.037341 -0.076545 0.0551309 5.30968e-018 -1 5.26789e-019
0.0199655 -0.076545 0.0551309 -0 -1 -0
0.00259111 -0.076545 0.0551309 -1.31228e-016 -1 5.33966e-025
-0.0147833 -0.076545 0.0551309 1.51211e-017 -1 -5.23987e-017
-0.0321587 -0.076545 0.0551309 -6.54674e-017 -1 -1.26985e-017
-0.0495331 -0.076545 0.0551309 3.28018e-017 -1 5.57341e-018
-0.0669075 -0.076545 0.0551309 0 -1 0
-0.084283 -0.076545 0.0551309 -2.71335e-017 -1 -6.56793e-017
-0.101657 -0.076545 0.0551309 9.01229e-017 -1 1.85771e-018
-0.119032 -0.076545 0.0551309 0 -1 0
-0.136407 -0.076545 0.0551309 -0 -1 -0
-0.153782 -0.076545 0.0551309 -9.94299e-018 -1 7.72134e-017
-0.171157 -0.076545 0.0551309 -2.17119e-017 -1 -1.2704e-017
-0.188531 -0.076545 0.0551309 0 -1 0
-0.205906 -0.076545 0.0551309 2.71335e-017 -1 -6.11055e-017
-0.223281 -0.076545 0.0551309 -0 -1 -0
-0.240656 -0.076545 0.0551309 -2.36794e-017 -1 -1.94322e-024
-0.25803 -0.076545 0.0551309 0 -1 0
-0.275406 -0.076545 0.0551309 -0 -1 -0
-0.29278 -0.076545 0.0551309 -5.39533e-018 -1 -7.07323e-017
-0.310155 -0.076545 0.0551309 -0 -1 -0
-0.32753 -0.076545 0.0551309 -1.1841e-017 -1 -7.43075e-018
-0.344904 -0.076545 0.0551309 -0.00484599 -0.999988 -5.71221e-009
-0.36228 -0.076545 0.0551309 -0.0409349 -0.999162 6.26573e-005
-0.379654 -0.0759021 0.0551309 -0.134307 -0.990925 0.00547938
-0.396385 -0.0733271 0.0557749 -0.330418 -0.943825 0.00427268
-0.411187 -0.0668924 0.0583488 -0.594491 -0.804091 0.00434748
0.427263 0.851675 0.047317 0.672778 0.738806 -0.0391838
0.41681 0.855986 0.0403532 0.180693 0.979893 -0.0846119
0.404376 0.851967 0.0357293 -0.422723 0.900218 -0.104464
0.433652 0.840915 0.0408864 0.848721 0.527661 -0.0352937
0.394325 0.841074 0.029047 -0.774429 0.626037 -0.0913125
0.436273 0.826063 0.0385009 0.977531 0.210543 -0.0101783
0.387892 0.826633 0.0355274 -0.947884 0.312884 -0.0601627
0.436963 0.809474 0.0378528 0.998825 0.0483996 -0.00246359
0.385271 0.809709 0.0374573 -0.991627 0.124773 -0.0332835
0.436963 0.792196 0.0377565 0.999965 0.00830299 -0.000984452
0.384835 0.792196 0.0377565 -0.999467 0.0314517 -0.00875407
0.436963 0.774821 0.0377565 1 0.000288336 -0.000112452
0.384835 0.774821 0.0377565 -0.999995 0.00321289 -0.00079406
0.436963 0.757446 0.0377565 1 -0 0
0.384835 0.757446 0.0377565 -1 0 -0
0.436963 0.740072 0.0377565 1 0 0
0.384835 0.740072 0.0377565 -1 -0 -0
0.436963 0.722696 0.0377565 1 -0 0
0.384835 0.722696 0.0377565 -1 0 -0
0.436963 0.705322 0.0377565 1 -0 0
0.384835 0.705322 0.0377565 -1 0 -0
0.436963 0.687947 0.0377565 1 0 0
0.384835 0.687947 0.0377565 -1 -0 -0
0.436963 0.670572 0.0377565 1 -0 0
0.384835 0.670572 0.0377565 -0.999999 -0.00145698 -0.000331608
0.436963 0.653197 0.0377565 1 0 0
0.384835 0.653197 0.0377565 -0.999932 -0.0111164 -0.00353461
0.436963 0.635823 0.0377565 0.999973 -0.00725557 -0.00113094
0.384915 0.636016 0.0381106 -0.999069 -0.0421867 -0.00906271
0.436963 0.618448 0.0377565 0.998986 -0.0448741 -0.00371473
0.385627 0.619371 0.0391946 -0.990757 -0.133123 -0.0260635
0.436319 0.601716 0.0371125 0.981979 -0.188802 -0.0084575
0.387944 0.602912 0.0410065 -0.948421 -0.311479 -0.0589794
0.433745 0.586916 0.0345386 0.835202 -0.549869 0.00904571
0.393789 0.587493 0.0473999 -0.794436 -0.603967 -0.0639897
0.427663 0.576555 0.0282001 0.576538 -0.817052 0.00555995
0.417628 0.572652 0.0350998 0.0462393 -0.998582 -0.0263662
0.404831 0.576824 0.0400871 -0.327498 -0.944493 -0.0260508
-0.0822692 0.0758913 0.0365979 0.090527 0.976307 0.196545
-0.0992999 0.0766636 0.0360885 0.00698333 0.983403 0.181302
-0.113611 0.0767537 0.0323623 -0.0595059 0.984796 0.163206
0.0547154 0.0595605 0.0377565 0.175645 0.974912 0.136734
0.037341 0.0618124 0.0377565 0.104679 0.990671 0.0872538
0.0199655 0.0624564 0.0377565 0.0468393 0.998106 0.0398886
0.00259111 0.0624564 0.0377565 0.038682 0.998796 0.0301863
-0.0147833 0.0630196 0.0377565 0.0830568 0.994485 0.0640329
-0.0321587 0.0647891 0.0377565 0.146943 0.981597 0.121966
-0.0494089 0.068563 0.0374946 0.188546 0.965758 0.178221
-0.0494368 0.0725595 0.0202848 0.210209 0.964836 0.157812
-0.157173 0.0678103 0.0413668 -0.176763 0.967032 0.183313
-0.149062 0.073952 0.0169934 -0.168798 0.976598 0.133277
-0.17503 0.0640208 0.0419373 -0.185139 0.966801 0.176126
-0.188169 0.0624367 0.0378155 -0.186631 0.967618 0.169954
-0.201222 0.0609976 0.0336016 -0.176893 0.971188 0.159696
0.193714 0.0417026 0.0377565 0.195974 0.978417 0.0655305
0.176339 0.0441968 0.0377565 0.117516 0.992426 0.0357864
0.158964 0.045082 0.0377565 0.047681 0.998774 0.0133173
0.141589 0.045082 0.0377565 0.0290452 0.999499 0.012595
0.124215 0.045403 0.0377565 0.0661317 0.997091 0.0379091
0.10684 0.0468514 0.0377565 0.13857 0.986551 0.0866937
0.0894652 0.0505508 0.0377565 0.202789 0.969658 0.136528
0.0894652 0.0532862 0.0203821 0.223638 0.969073 0.104323
-0.242885 0.0521297 0.0413057 -0.147462 0.976751 0.155606
-0.232166 0.0577869 0.0197381 -0.16944 0.977483 0.125765
-0.264157 0.0490671 0.0398107 -0.132941 0.984107 0.117728
-0.251393 0.0538722 0.0215811 -0.169734 0.978584 0.116461
-0.279906 0.0468742 0.0424229 -0.116952 0.988729 0.0934692
-0.292853 0.0458948 0.0386531 -0.11679 0.99019 0.0767057
-0.309463 0.0440611 0.0364882 -0.123003 0.989604 0.0745209
-0.323294 0.0427649 0.0323623 -0.145768 0.98541 0.087852
0.332712 0.0232017 0.0377565 0.255103 0.965705 0.0483441
0.315338 0.0263389 0.0377565 0.138244 0.990026 0.0271424
0.297962 0.0276268 0.0377565 0.0557182 0.998383 0.011237
0.280588 0.0277066 0.0377565 0.0235728 0.99971 0.00501647
0.263213 0.0277873 0.0377565 0.0503059 0.998619 0.0151404
0.245838 0.0289935 0.0377565 0.117755 0.992256 0.0395122
0.228464 0.0319702 0.0377565 0.195349 0.978554 0.0653564
-0.365327 0.0333431 0.0416246 -0.224106 0.968886 0.105057
-0.354736 0.0384288 0.0202475 -0.214254 0.973537 0.0795065
-0.382939 0.0292275 0.0429903 -0.292544 0.951925 0.0908678
-0.39567 0.025788 0.0388271 -0.412327 0.908299 0.0705655
0.364792 0.00962812 0.0398894 0.570436 0.81266 0.119109
0.349573 0.0176542 0.0382442 0.397511 0.914402 0.0765155
0.349628 0.0187207 0.0205426 0.372103 0.926702 0.052564
-0.410628 0.0179017 0.035633 -0.619809 0.782993 0.0525163
-0.421931 0.00642885 0.0287054 -0.827408 0.560319 0.0379192
0.385409 -0.0123174 0.0375184 0.898586 0.398248 0.184233
-0.42847 -0.00896491 0.0345158 -0.959464 0.279891 0.0330147
-0.430343 -0.0253433 0.0369614 -0.999698 0.00700757 0.0235541
0.388863 -0.0422621 0.0297366 0.937398 -0.299738 0.177321
-0.428482 -0.0413438 0.0406203 -0.95877 -0.283878 0.0131986
0.378818 -0.0575513 0.0341296 0.752356 -0.645611 0.130946
-0.422127 -0.0559517 0.0474092 -0.816668 -0.577084 0.00516752
0.365389 -0.0679816 0.0356837 0.504524 -0.860578 0.0697254
0.349598 -0.0735663 0.0372647 0.273923 -0.961507 0.0216832
0.332712 -0.0759021 0.0377565 0.118054 -0.993002 0.00316233
0.315338 -0.076545 0.0377565 0.0365861 -0.99933 -0.000762835
0.297962 -0.076545 0.0377565 0.00484598 -0.999988 5.70222e-009
0.280588 -0.076545 0.0377565 -1.18372e-017 -1 7.4311e-018
0.263213 -0.076545 0.0377565 -0 -1 -0
0.245838 -0.076545 0.0377565 0 -1 0
0.228464 -0.076545 0.0377565 1.18371e-017 -1 7.43135e-018
0.211089 -0.076545 0.0377565 -8.52145e-017 -1 -7.34111e-021
0.193714 -0.076545 0.0377565 -8.38428e-017 -1 -1.58446e-017
0.176339 -0.076545 0.0377565 1.17508e-017 -1 5.24484e-017
0.158964 -0.076545 0.0377565 5.19554e-018 -1 5.07543e-021
0.141589 -0.076545 0.0377565 9.01225e-017 -1 6.17413e-017
0.124215 -0.076545 0.0377565 3.53062e-017 -1 -3.84818e-017
0.10684 -0.076545 0.0377565 0 -1 0
0.0894652 -0.076545 0.0377565 -1.26795e-017 -1 5.43102e-017
0.0720908 -0.076545 0.0377565 -0 -1 -0
0.0547154 -0.076545 0.0377565 2.23906e-017 -1 -1.86713e-018
0.037341 -0.076545 0.0377565 -1.35596e-016 -1 5.80264e-017
0.0199655 -0.076545 0.0377565 0 -1 0
0.00259111 -0.076545 0.0377565 -1.31228e-016 -1 5.98837e-017
-0.0147833 -0.076545 0.0377565 -2.65084e-017 -1 1.67942e-016
-0.0321587 -0.076545 0.0377565 -5.9893e-017 -1 -1.03486e-021
-0.0495331 -0.076545 0.0377565 3.28018e-017 -1 -5.57336e-018
-0.0669075 -0.076545 0.0377565 -0 -1 -0
-0.084283 -0.076545 0.0377565 3.53062e-017 -1 3.83565e-017
-0.101657 -0.076545 0.0377565 9.01229e-017 -1 -1.85771e-018
-0.119032 -0.076545 0.0377565 -0 -1 -0
-0.136407 -0.076545 0.0377565 0 -1 0
-0.153782 -0.076545 0.0377565 -7.83274e-017 -1 5.57214e-018
-0.171157 -0.076545 0.0377565 -1.61375e-017 -1 4.4666e-021
-0.188531 -0.076545 0.0377565 -0 -1 -0
-0.205906 -0.076545 0.0377565 -3.53063e-017 -1 3.38453e-017
-0.223281 -0.076545 0.0377565 0 -1 0
-0.240656 -0.076545 0.0377565 -2.36794e-017 -1 5.98841e-017
-0.25803 -0.076545 0.0377565 -0 -1 -0
-0.275406 -0.076545 0.0377565 0 -1 0
-0.29278 -0.076545 0.0377565 -5.39565e-018 -1 7.07327e-017
-0.310155 -0.076545 0.0377565 0 -1 0
-0.32753 -0.076545 0.0377565 -1.18409e-017 -1 6.73145e-017
-0.344904 -0.076545 0.0377565 -0.00484599 -0.999988 5.70223e-009
-0.36228 -0.076545 0.0377565 -0.0409349 -0.999162 6.28287e-005
-0.379654 -0.0759021 0.0377565 -0.13324 -0.991079 0.00308898
-0.396385 -0.0733271 0.0383995 -0.330418 -0.943825 0.00427233
-0.411187 -0.0668924 0.0409744 -0.592142 -0.805826 0.00351874
0.426936 0.850953 0.029601 0.610668 0.78807 -0.0776604
0.4164 0.854664 0.0223762 -0.00403867 0.994277 -0.106756
0.403795 0.849906 0.0161268 -0.451627 0.881416 -0.138344
0.433491 0.840162 0.0237636 0.839145 0.541034 -0.0558285
0.394242 0.83914 0.0142082 -0.798126 0.597611 -0.0765194
0.436169 0.825557 0.0218202 0.974556 0.222598 -0.0262714
0.388681 0.826474 0.0176477 -0.939297 0.337822 -0.0599762
0.436882 0.809378 0.0207352 0.998531 0.0535187 -0.00849803
0.385764 0.809681 0.0197567 -0.989036 0.143476 -0.0349681
0.436963 0.792196 0.0203811 0.999934 0.0111425 -0.00282904
0.384835 0.792196 0.0203811 -0.998889 0.0454456 -0.0124984
0.436963 0.774821 0.0203811 0.999999 0.0009921 -0.000234398
0.384835 0.774821 0.0203811 -0.999966 0.0079662 -0.00206442
0.436963 0.757446 0.0203811 1 0 0
0.384835 0.757446 0.0203811 -1 -0 -0
0.436963 0.740072 0.0203811 1 -0 0
0.384835 0.740072 0.0203811 -1 0 -0
0.436963 0.722696 0.0203811 1 -0 0
0.384835 0.722696 0.0203811 -1 0 -0
0.436963 0.705322 0.0203811 1 -0 0
0.384835 0.705322 0.0203811 -1 -0 -0
0.436963 0.687947 0.0203811 1 0 0
0.384835 0.687947 0.0203811 -1 -0 -0
0.436963 0.670572 0.0203811 1 -0 0
0.384835 0.670572 0.0203811 -0.999996 -0.00272531 -0.000423657
0.436963 0.653197 0.0203811 1 -0 0
0.384835 0.653197 0.0203811 -0.999873 -0.0155194 -0.00375471
0.436963 0.635823 0.0203811 0.999973 -0.00726823 0.000453867
0.385156 0.635919 0.0209609 -0.998278 -0.0574358 -0.0118801
0.436963 0.618448 0.0203811 0.99899 -0.0447429 -0.00403481
0.386064 0.619303 0.0228773 -0.988906 -0.144968 -0.0323961
0.436319 0.601716 0.0197381 0.980944 -0.194254 -0.00387847
0.387753 0.60595 0.026996 -0.956314 -0.288791 -0.0454217
0.433745 0.586916 0.0171642 0.846149 -0.53285 0.0101126
0.39483 0.589481 0.0263499 -0.811722 -0.582115 -0.0474386
0.427936 0.576491 0.0110825 0.525428 -0.850826 -0.00462149
0.418678 0.572225 0.0182078 -0.00553276 -0.999954 -0.00787386
0.407113 0.576269 0.0215396 -0.285873 -0.958194 -0.0118453
-0.0665534 0.0767102 0.0201885 0.156937 0.976015 0.150882
-0.0836027 0.0786267 0.0200228 0.0714796 0.989343 0.12685
-0.100325 0.0789114 0.0192101 -0.0101381 0.993451 0.11381
-0.116771 0.0782001 0.0181198 -0.0688621 0.990188 0.121594
-0.130703 0.0774194 0.0148429 -0.109824 0.987005 0.117302
0.0720908 0.0583533 0.0203821 0.204478 0.973506 0.102347
0.0547154 0.0612492 0.0203821 0.136037 0.988159 0.0709682
0.037341 0.0624564 0.0203811 0.0617897 0.997558 0.0325713
0.0199655 0.0624564 0.0203811 0.0354568 0.999172 0.0199437
0.00259111 0.0627784 0.0203811 0.0674393 0.99696 0.0390295
-0.0147833 0.0642258 0.0203811 0.136669 0.987107 0.083313
-0.0321577 0.0679262 0.0203821 0.198641 0.971277 0.13101
-0.0324569 0.0706151 0.00286896 0.216687 0.972878 0.0809625
-0.173187 0.0678165 0.0244449 -0.196998 0.969177 0.147941
-0.163337 0.0730585 0.00299114 -0.205381 0.975734 0.0759031
-0.190938 0.063997 0.024419 -0.187481 0.972335 0.139342
-0.203653 0.0625817 0.0197278 -0.172911 0.977144 0.123661
-0.216761 0.061069 0.0159021 -0.168083 0.978828 0.116809
0.211089 0.038083 0.0203821 0.228209 0.972562 0.0452069
0.193714 0.0422658 0.0203811 0.177627 0.983558 0.032604
0.176339 0.044438 0.0203811 0.0993632 0.994901 0.0173104
0.158964 0.045082 0.0203811 0.0452468 0.998933 0.00920709
0.141589 0.0451617 0.0203811 0.0480776 0.998692 0.0173762
0.124215 0.0461277 0.0203811 0.106883 0.993199 0.0461749
0.10684 0.0487813 0.0203821 0.182247 0.979791 0.0824408
-0.273167 0.0499554 0.024069 -0.157252 0.984138 0.0821289
-0.292284 0.0470347 0.0208501 -0.127235 0.990656 0.0491097
-0.309217 0.0450955 0.0192784 -0.121726 0.991262 0.050821
-0.325441 0.0435652 0.0182027 -0.135767 0.988732 0.0630613
-0.33878 0.0423507 0.0156329 -0.161144 0.984797 0.0648576
0.332225 0.0243862 0.020409 0.228396 0.973211 0.0263649
0.314984 0.0268224 0.0205747 0.119228 0.992807 0.0108961
0.297866 0.0277066 0.0204784 0.0471583 0.998883 0.00285745
0.280588 0.0277066 0.0203811 0.0275821 0.999617 0.00228824
0.263213 0.0280286 0.0203811 0.0672315 0.997643 0.0136952
0.245838 0.0295568 0.0203811 0.13968 0.989685 0.0318213
0.228464 0.0334176 0.0203821 0.208844 0.976948 0.0442248
-0.376734 0.0325997 0.0242937 -0.292161 0.954044 0.0666438
-0.395728 0.0266298 0.0206202 -0.429403 0.902062 0.04355
0.377911 0.00152848 0.0278595 0.720061 0.679409 0.141122
0.365936 0.0111221 0.0222934 0.544744 0.833915 0.0885431
-0.410946 0.0185364 0.0174168 -0.641891 0.766314 0.0271982
-0.422081 0.00704489 0.0108205 -0.828895 0.559143 0.0171136
0.392296 -0.0235852 0.0216804 0.970496 0.153554 0.185899
0.391787 -0.0123288 0.00883368 0.907369 0.399367 0.131099
0.387688 -0.00779598 0.0199825 0.857766 0.491211 0.151492
-0.42847 -0.0079223 0.0172512 -0.9573 0.288623 0.0165188
-0.430447 -0.0246807 0.0202806 -0.999961 0.00446738 0.00763245
0.392705 -0.0407919 0.011654 0.948045 -0.270295 0.167786
-0.428562 -0.0412475 0.0235027 -0.957084 -0.289756 0.00563447
0.38375 -0.0563058 0.0166859 0.776699 -0.611489 0.151066
-0.422127 -0.0559517 0.0300337 -0.814104 -0.580715 0.0023647
0.367592 -0.0684444 0.0161744 0.482241 -0.870951 0.0942771
0.349979 -0.0738148 0.0195538 0.249805 -0.967436 0.0408137
0.332781 -0.0759248 0.0203127 0.0974211 -0.995102 0.0167683
0.315338 -0.076545 0.0203811 0.0333453 -0.999444 0.000416414
0.297962 -0.076545 0.0203811 0.00466955 -0.999989 -2.1521e-006
0.280588 -0.076545 0.0203811 0 -1 0
0.263213 -0.076545 0.0203811 -0 -1 -0
0.245838 -0.076545 0.0203811 4.35399e-018 -1 5.14232e-017
0.228464 -0.076545 0.0203811 1.18371e-017 -1 8.30189e-018
0.211089 -0.076545 0.0203811 -0 -1 -0
0.193714 -0.076545 0.0203811 4.35458e-018 -1 5.17082e-017
0.176339 -0.076545 0.0203811 1.17519e-017 -1 2.31674e-017
0.158964 -0.076545 0.0203811 1.38628e-017 -1 -3.75586e-017
0.141589 -0.076545 0.0203811 9.01226e-017 -1 1.38751e-017
0.124215 -0.076545 0.0203811 1.38628e-017 -1 3.75511e-017
0.10684 -0.076545 0.0203811 0 -1 0
0.0894652 -0.076545 0.0203811 -9.01226e-017 -1 -1.75901e-017
0.0720908 -0.076545 0.0203811 -0 -1 -0
0.0547154 -0.076545 0.0203811 2.76215e-017 -1 2.45587e-017
0.037341 -0.076545 0.0203811 -2.21509e-017 -1 -7.79988e-017
0.0199655 -0.076545 0.0203811 0 -1 0
0.00259111 -0.076545 0.0203811 -1.31228e-016 -1 1.57327e-017
-0.0147833 -0.076545 0.0203811 -0 -1 -0
-0.0321587 -0.076545 0.0203811 1.5483e-017 -1 -9.32837e-018
-0.0495331 -0.076545 0.0203811 3.2802e-017 -1 -1.01595e-017
-0.0669075 -0.076545 0.0203811 -0 -1 -0
-0.084283 -0.076545 0.0203811 1.38628e-017 -1 -3.75511e-017
-0.101657 -0.076545 0.0203811 9.01231e-017 -1 -1.38748e-017
-0.119032 -0.076545 0.0203811 -0 -1 -0
-0.136407 -0.076545 0.0203811 9.02672e-018 -1 -5.30702e-017
-0.153782 -0.076545 0.0203811 -7.83275e-017 -1 1.0161e-017
-0.171157 -0.076545 0.0203811 1.38628e-017 -1 -3.75486e-017
-0.188531 -0.076545 0.0203811 0 -1 0
-0.205906 -0.076545 0.0203811 -1.38628e-017 -1 -3.75586e-017
-0.223281 -0.076545 0.0203811 0 -1 0
-0.240656 -0.076545 0.0203811 -2.36794e-017 -1 1.57324e-017
-0.25803 -0.076545 0.0203811 4.354e-018 -1 -5.14132e-017
-0.275406 -0.076545 0.0203811 -0 -1 -0
-0.29278 -0.076545 0.0203811 0 -1 0
-0.310155 -0.076545 0.0203811 0 -1 0
-0.32753 -0.076545 0.0203811 -1.18409e-017 -1 -2.31629e-017
-0.344904 -0.076545 0.0203811 -0.00484599 -0.999988 9.31295e-009
-0.36228 -0.076545 0.0203811 -0.0409349 -0.999162 6.25646e-005
-0.379654 -0.0759021 0.0203811 -0.134306 -0.990925 0.0054793
-0.396385 -0.0733271 0.0210251 -0.330418 -0.943825 0.00427234
-0.411187 -0.0668924 0.023599 -0.590873 -0.80676 0.00256143
0.426412 0.849042 0.00979036 0.621366 0.7763 -0.106125
0.415181 0.853746 0.00689963 -0.0423689 0.99371 -0.103663
0.407441 0.850476 -0.00229438 -0.291175 0.95226 -0.091748
0.433721 0.837632 0.0100275 0.877421 0.476066 -0.0591015
0.398083 0.84388 0.00414971 -0.663778 0.742193 -0.0924554
0.435595 0.82558 0.00564063 0.965808 0.25682 -0.0354833
0.391253 0.828999 -0.000633664 -0.899585 0.432622 -0.0598719
0.436641 0.809474 0.00358543 0.997373 0.0714785 -0.0117846
0.386452 0.810026 0.00203653 -0.983289 0.177197 -0.0417601
0.436963 0.792196 0.00300667 0.99981 0.019279 -0.00300952
0.384973 0.792265 0.00293833 -0.997664 0.0659158 -0.0179446
0.436963 0.774821 0.00300667 0.999994 0.00345523 -0.000468793
0.384835 0.774821 0.00300667 -0.999871 0.0155192 -0.00416933
0.436963 0.757446 0.00300667 1 0 0
0.384835 0.757446 0.00300667 -1 0.000840351 -0.000311532
0.436963 0.740072 0.00300667 1 0 0
0.384835 0.740072 0.00300667 -1 -0 -0
0.436963 0.722696 0.00300667 1 -0 0
0.384835 0.722696 0.00300667 -1 0 -0
0.436963 0.705322 0.00300667 1 -0 0
0.384835 0.705322 0.00300667 -1 0 -0
0.436963 0.687947 0.00300667 1 0 0
0.384835 0.687947 0.00300667 -1 -0 0
0.436963 0.670572 0.00300667 1 -0 0
0.384835 0.670572 0.00300667 -0.999984 -0.00561722 0.000128711
0.436963 0.653197 0.00300667 1 0 0
0.384835 0.653197 0.00300667 -0.999695 -0.0246901 -0.000639569
0.436963 0.635823 0.00300667 0.999972 -0.00751777 -2.22935e-005
0.385397 0.635822 0.00365066 -0.997323 -0.0726575 -0.00819871
0.436963 0.618448 0.00300667 0.999002 -0.044664 -0.000885496
0.38672 0.618572 0.00586634 -0.98367 -0.178582 -0.0223972
0.436319 0.601716 0.00236371 0.98171 -0.190344 -0.00393558
0.389953 0.602479 0.0120071 -0.936602 -0.348004 -0.0408704
0.433745 0.586916 -0.000211236 0.849648 -0.527339 0.0033769
0.399014 0.584861 0.00414246 -0.692931 -0.720962 0.00780741
0.427985 0.576555 -0.00606621 0.610365 -0.792117 -0.00225174
0.419115 0.572156 0.00188951 -0.0764003 -0.997007 -0.0118204
0.410348 0.574044 0.0074463 -0.18914 -0.981796 -0.0173884
-0.0500197 0.0757059 0.00303462 0.200965 0.975499 0.0895215
-0.0672616 0.0786246 0.00320028 0.130549 0.989074 0.0684762
-0.084283 0.0798308 0.00300667 0.0463047 0.997956 0.0440536
-0.101203 0.0796931 0.00255214 -0.00502015 0.999095 0.0422373
-0.117763 0.0792241 0.00173835 -0.0592339 0.996853 0.0526755
-0.133957 0.0782943 0.000887282 -0.116142 0.991018 0.066285
-0.147421 0.0770767 -0.0016711 -0.158457 0.985748 0.056504
0.089167 0.0551706 0.00286896 0.220377 0.974311 0.0463872
0.0716031 0.0595377 0.00303462 0.180381 0.983081 0.0318391
0.0543623 0.0618124 0.00320028 0.105365 0.994362 0.0119404
0.0372447 0.0624564 0.00310296 0.0511839 0.998668 0.00652909
0.0199655 0.0625372 0.00300667 0.0506026 0.99862 0.0140414
0.00259111 0.0635021 0.00300667 0.104548 0.993686 0.0407194
-0.0148527 0.066134 0.00293833 0.176157 0.981979 0.0684614
-0.185206 0.0675597 0.00656313 -0.200764 0.976613 0.0769458
-0.20408 0.0639442 0.00277682 -0.173228 0.982783 0.064256
-0.220717 0.0615971 0.00222083 -0.164779 0.983907 0.0691031
-0.23798 0.0590666 0.00302116 -0.178514 0.981922 0.0629489
0.211089 0.0385654 0.00300667 0.221732 0.974984 0.0155265
0.193714 0.0425071 0.00300667 0.168318 0.985704 0.00756655
0.176339 0.044438 0.00300667 0.0910411 0.995846 0.00158531
0.158964 0.045082 0.00300667 0.0476152 0.998865 0.00153259
0.141589 0.045403 0.00300667 0.0705459 0.997362 0.0170822
0.124215 0.0468514 0.00300667 0.133219 0.99046 0.03524
0.106771 0.050528 0.00293833 0.199624 0.978849 0.0447699
-0.256343 0.055182 0.00370968 -0.195184 0.979524 0.0493566
-0.274776 0.0508728 0.00364134 -0.186363 0.982225 0.0224222
-0.292546 0.0473681 0.00304808 -0.148217 0.988923 0.0078734
-0.3097 0.0455065 0.00255214 -0.1132 0.993481 0.0134893
-0.326156 0.044263 0.00198684 -0.119134 0.992407 0.0305947
-0.342592 0.0424242 0.0022902 -0.173623 0.984233 0.0337595
0.348529 0.0199041 0.00270331 0.339231 0.94069 0.00487734
0.330796 0.0248314 0.00379251 0.205318 0.978681 -0.0052941
0.314363 0.0268886 0.00393021 0.108778 0.994005 -0.0110578
0.297839 0.0275689 0.00326861 0.0475725 0.998839 -0.00758883
0.280588 0.0277066 0.00300667 0.0358924 0.999356 -0.00015186
0.263213 0.0282698 0.00300667 0.0769616 0.996997 0.00862292
0.245838 0.0300392 0.00300667 0.152945 0.988066 0.0182678
0.228464 0.0339001 0.00300667 0.210538 0.977385 0.0198227
-0.360413 0.0383625 0.00350675 -0.239265 0.970418 0.0322774
-0.378946 0.0330532 0.00370036 -0.31619 0.948524 0.0180492
-0.396248 0.0267758 0.00250141 -0.452652 0.891677 0.0043828
0.381993 0.000593551 0.00844024 0.738569 0.667877 0.0919537
0.366074 0.0123314 0.00368276 0.507009 0.86117 0.0364526
-0.411187 0.0186171 -0.000211236 -0.642915 0.765936 0.00142492
-0.422127 0.00711322 -0.00664601 -0.828566 0.559882 -0.00326157
-0.428562 -0.00768727 -0.000211236 -0.956266 0.292496 0.000837357
0.396191 -0.0249095 0.00283687 0.982333 0.134235 0.130398
-0.430492 -0.0244187 0.00300667 -0.999993 0.00226401 0.00300542
0.396182 -0.0398311 -0.00595128 0.970209 -0.211669 0.117857
-0.428562 -0.0411512 0.00622457 -0.95576 -0.294133 0.0029412
0.388647 -0.0552435 -0.000899752 0.806444 -0.575989 0.133736
-0.422127 -0.0559517 0.0126593 -0.812706 -0.582674 7.20179e-005
0.375207 -0.0669244 0.000901777 0.547173 -0.830023 0.108
0.362004 -0.0731521 -0.00169284 0.326332 -0.942988 0.0654262
0.349398 -0.0747849 0.00168348 0.181062 -0.982566 0.0421934
0.332753 -0.0761081 0.00277268 0.0779369 -0.996822 0.0165084
0.315338 -0.076545 0.00300667 0.0231896 -0.999696 0.00841552
0.297962 -0.076545 0.00300667 0.00329108 -0.999995 -5.22104e-006
0.280588 -0.076545 0.00300667 1.67576e-016 -1 -1.59932e-016
0.263213 -0.076545 0.00300667 -0 -1 -0
0.245838 -0.076545 0.00300667 0 -1 0
0.228464 -0.076545 0.00300667 1.18371e-017 -1 -9.98962e-017
0.211089 -0.076545 0.00300667 -0 -1 -0
0.193714 -0.076545 0.00300667 -6.91116e-017 -1 -6.56146e-017
0.176339 -0.076545 0.00300667 6.54928e-017 -1 1.31229e-016
0.158964 -0.076545 0.00300667 3.33805e-018 -1 -8.13593e-017
0.141589 -0.076545 0.00300667 -1.09617e-017 -1 1.31233e-016
0.124215 -0.076545 0.00300667 5.19486e-018 -1 -6.56112e-017
0.10684 -0.076545 0.00300667 0 -1 0
0.0894652 -0.076545 0.00300667 1.2656e-016 -1 -1.06621e-016
0.0720908 -0.076545 0.00300667 -0 -1 -0
0.0547154 -0.076545 0.00300667 3.10036e-017 -1 -6.56137e-017
0.037341 -0.076545 0.00300667 -5.98836e-017 -1 6.56141e-017
0.0199655 -0.076545 0.00300667 1.57327e-017 -1 -6.56139e-017
0.00259111 -0.076545 0.00300667 -1.77299e-017 -1 -1.06621e-016
-0.0147833 -0.076545 0.00300667 -0 -1 -0
-0.0321587 -0.076545 0.00300667 -6.17505e-017 -1 -8.13601e-017
-0.0495331 -0.076545 0.00300667 -6.66198e-017 -1 -1.59932e-016
-0.0669075 -0.076545 0.00300667 3.80863e-017 -1 -6.56137e-017
-0.084283 -0.076545 0.00300667 -1.35923e-016 -1 -6.56154e-017
-0.101657 -0.076545 0.00300667 -7.39781e-017 -1 -1.06622e-016
-0.119032 -0.076545 0.00300667 -0 -1 -0
-0.136407 -0.076545 0.00300667 -6.3954e-017 -1 1.31226e-016
-0.153782 -0.076545 0.00300667 -6.91124e-017 -1 -6.56129e-017
-0.171157 -0.076545 0.00300667 -1.7995e-017 -1 -8.1361e-017
-0.188531 -0.076545 0.00300667 -0 -1 -0
-0.205906 -0.076545 0.00300667 -0 -1 -0
-0.223281 -0.076545 0.00300667 0 -1 0
-0.240656 -0.076545 0.00300667 -8.73547e-018 -1 1.31236e-016
-0.25803 -0.076545 0.00300667 -6.55607e-017 -1 -6.56112e-017
-0.275406 -0.076545 0.00300667 8.52823e-017 -1 -6.56146e-017
-0.29278 -0.076545 0.00300667 -0 -1 -0
-0.310155 -0.076545 0.00300667 0 -1 0
-0.32753 -0.076545 0.00300667 1.06402e-016 -1 -1.06622e-016
-0.344904 -0.076545 0.00300667 -0.00484599 -0.999988 -3.23183e-012
-0.36228 -0.076545 0.00300667 -0.0404915 -0.999174 0.0034225
-0.379654 -0.0759021 0.00300667 -0.13823 -0.99038 0.00634314
-0.396385 -0.0733271 0.00365066 -0.330925 -0.943653 0.00276116
-0.411187 -0.0668924 0.00622457 -0.590774 -0.806836 0.00101307
0.420313 0.8503 -0.00990118 0.168433 0.981553 -0.0904619
0.431036 0.840168 -0.00440859 0.772215 0.632303 -0.0622579
0.408685 0.849669 -0.0200498 -0.140492 0.987881 -0.0659749
0.398563 0.841626 -0.0105907 -0.687158 0.724138 -0.0586401
0.434687 0.826247 -0.0112565 0.939254 0.342064 -0.0281724
0.391698 0.82695 -0.0207756 -0.906239 0.419967 -0.0485612
0.436422 0.80964 -0.0138169 0.995551 0.0941693 -0.0033359
0.387064 0.810122 -0.0160461 -0.980147 0.196215 -0.0284911
0.436963 0.792196 -0.0143677 0.999604 0.0280913 0.00167427
0.385271 0.792334 -0.014667 -0.996484 0.0823987 -0.01518
0.436963 0.774821 -0.0143677 0.999991 0.00427495 -0.000235488
0.384835 0.774821 -0.0143677 -0.999716 0.0232859 -0.00514473
0.436963 0.757446 -0.0143677 1 -0 0
0.384835 0.757446 -0.0143677 -0.999995 0.00327847 -6.63136e-006
0.436963 0.740072 -0.0143677 1 0 0
0.384835 0.740072 -0.0143677 -1 -0 -0
0.436963 0.722696 -0.0143677 1 0 0
0.384835 0.722696 -0.0143677 -1 -0 0
0.436963 0.705322 -0.0143677 1 -0 0
0.384835 0.705322 -0.0143677 -1 -0 -0
0.436963 0.687947 -0.0143677 1 -0 0
0.384835 0.687947 -0.0143677 -1 -0 -0
0.436963 0.670572 -0.0143677 1 0 0
0.384835 0.670572 -0.0143677 -0.999987 -0.00508677 0.000351022
0.436963 0.653197 -0.0143677 1 0 0
0.384835 0.653197 -0.0143677 -0.999629 -0.0270528 0.00315222
0.436963 0.635823 -0.0143677 0.999974 -0.0072418 -0.000493201
0.385455 0.635754 -0.0138169 -0.996507 -0.0833841 0.00448693
0.436963 0.618448 -0.0143677 0.999002 -0.0446639 -0.000885585
0.387156 0.618241 -0.011886 -0.981483 -0.191537 -0.0023492
0.436319 0.601716 -0.0150117 0.983222 -0.182148 -0.00981901
0.391464 0.601357 -0.00638406 -0.927072 -0.374633 -0.0136689
0.433745 0.586916 -0.0175856 0.840488 -0.541818 0.00352824
0.398795 0.586161 -0.0169385 -0.73953 -0.672762 -0.0220735
0.427953 0.576619 -0.0233775 0.630133 -0.776484 0.00200481
0.418961 0.57256 -0.015048 0.0471581 -0.998887 -0.00121528
0.408888 0.575763 -0.00753331 -0.26805 -0.96299 -0.0282873
-0.0340255 0.0723876 -0.0148678 0.211906 0.977266 0.00688041
-0.0518451 0.0768521 -0.0136513 0.176776 0.984251 0.000467368
-0.0682825 0.0790129 -0.0133479 0.106695 0.994095 -0.0197805
-0.0847375 0.0796931 -0.0139132 0.0399814 0.998957 -0.0220596
-0.101657 0.0798308 -0.0143677 -0.000904978 0.99984 -0.0178362
-0.118577 0.0796931 -0.0148233 -0.0410915 0.999102 -0.0103501
-0.135032 0.0790129 -0.0153886 -0.105635 0.994397 -0.00397433
-0.15147 0.0768521 -0.0150852 -0.175195 0.98446 -0.0120553
0.0875984 0.0557369 -0.0148688 0.206989 0.978033 -0.0246482
0.0697788 0.0597997 -0.0136513 0.163933 0.986055 -0.0286495
0.0533414 0.0616385 -0.0133479 0.0984536 0.994528 -0.0349428
0.0368854 0.0623187 -0.0139132 0.0558935 0.998265 -0.0185019
0.0198692 0.0627784 -0.0142714 0.0744233 0.997226 0.000917717
0.00245341 0.0641803 -0.0145054 0.126745 0.991774 0.017885
-0.0154915 0.0677223 -0.0150614 0.189475 0.981666 0.0207706
-0.16929 0.0723876 -0.0138677 -0.21549 0.976467 -0.00872558
-0.187727 0.0677223 -0.0137714 -0.204953 0.978707 -0.0112473
-0.205414 0.0640995 -0.0144236 -0.171465 0.985135 -0.0103758
-0.222701 0.0618932 -0.014464 -0.164582 0.986345 -0.00595079
-0.240104 0.0592965 -0.0142994 -0.194249 0.980834 -0.0152013
0.21079 0.0386006 -0.0145054 0.209399 0.977796 -0.00818332
0.193227 0.0424843 -0.0143408 0.161874 0.986669 -0.0167713
0.175985 0.044438 -0.0141752 0.0927132 0.995606 -0.0131839
0.158868 0.045082 -0.0142714 0.0553844 0.998437 -0.00750325
0.141589 0.0456442 -0.0143677 0.082408 0.996586 0.00497331
0.124077 0.0473681 -0.0145054 0.138623 0.990329 0.00558488
0.106131 0.0510716 -0.0150614 0.193601 0.981052 -0.0075223
-0.257732 0.0550898 -0.01423 -0.212556 0.976828 -0.0250203
-0.275336 0.050528 -0.0142994 -0.196706 0.979698 -0.0387211
-0.29278 0.0468514 -0.0143677 -0.141286 0.989516 -0.029936
-0.310058 0.045403 -0.014464 -0.101463 0.99477 -0.0117548
-0.327176 0.044438 -0.0145613 -0.116175 0.993227 -0.00172298
-0.344418 0.042243 -0.0143957 -0.185615 0.982533 -0.0132848
0.34402 0.0208556 -0.0137755 0.289362 0.956821 -0.0276311
0.328095 0.0250043 -0.00975106 0.186844 0.982102 -0.0237641
0.314951 0.0262219 -0.0130445 0.118734 0.992635 -0.0240239
0.298004 0.0272707 -0.0141337 0.0553487 0.998405 -0.0111659
0.280588 0.0277066 -0.0143677 0.0507556 0.998711 -0.000348261
0.263213 0.0283506 -0.0143677 0.0884897 0.996063 0.00528855
0.245838 0.0302805 -0.0143677 0.15293 0.988235 0.00223446
0.228394 0.0341186 -0.0144371 0.205026 0.978731 -0.00699473
-0.36198 0.0380374 -0.01423 -0.256312 0.96628 -0.0246181
-0.379586 0.0327508 -0.0142994 -0.329935 0.943537 -0.0296757
-0.396385 0.0263389 -0.0150117 -0.453872 0.89042 -0.03395
0.381261 0.00225945 -0.0114397 0.688635 0.724597 0.0272273
0.364727 0.0128398 -0.0170669 0.4685 0.883413 -0.00946323
-0.411187 0.0183293 -0.017655 -0.644264 0.764366 -0.0258479
0.392047 -0.0102695 -0.00538701 0.889923 0.448025 0.0855005
-0.422094 0.00692479 -0.0240939 -0.826521 0.562494 -0.0215374
-0.428562 -0.00768727 -0.0175856 -0.957473 0.288368 -0.00944432
0.397597 -0.024309 -0.0137061 0.985921 0.149287 0.0753249
-0.430492 -0.0244187 -0.0143677 -0.999984 -0.000607225 -0.0056376
0.398599 -0.0367633 -0.0203635 0.990066 -0.122069 0.0697683
-0.428562 -0.0411512 -0.0111509 -0.95513 -0.296167 -0.00338557
0.392166 -0.0528415 -0.0205851 0.85867 -0.505897 0.0821844
-0.422127 -0.0559517 -0.00471506 -0.81196 -0.583691 -0.00505816
0.379209 -0.066326 -0.0160222 0.584734 -0.807339 0.0793086
0.364575 -0.0732443 -0.0153606 0.340421 -0.938394 0.059411
0.348855 -0.0757271 -0.0152923 0.156832 -0.987195 0.0291566
0.332588 -0.0764073 -0.0146297 0.0507036 -0.998623 0.0134456
0.315338 -0.076545 -0.0143677 0.0116243 -0.999927 0.00334863
0.297962 -0.076545 -0.0143677 0.00189231 -0.999998 0.000951795
0.280588 -0.076545 -0.0143677 -0 -1 -0
0.263213 -0.076545 -0.0143677 0 -1 0
0.245838 -0.076545 -0.0143677 2.69281e-018 -1 -1.773e-016
0.228464 -0.076545 -0.0143677 1.18371e-017 -1 7.43082e-018
0.211089 -0.076545 -0.0143677 0 -1 0
0.193714 -0.076545 -0.0143677 2.69211e-018 -1 -1.77584e-016
0.176339 -0.076545 -0.0143677 1.17518e-017 -1 -7.43473e-018
0.158964 -0.076545 -0.0143677 -1.3797e-017 -1 4.92681e-017
0.141589 -0.076545 -0.0143677 9.01226e-017 -1 1.85739e-018
0.124215 -0.076545 -0.0143677 -1.3797e-017 -1 -4.92606e-017
0.10684 -0.076545 -0.0143677 -0 -1 -0
0.0894652 -0.076545 -0.0143677 -9.01226e-017 -1 1.85732e-018
0.0720908 -0.076545 -0.0143677 0 -1 0
0.0547154 -0.076545 -0.0143677 -1.0166e-018 -1 -1.59e-016
0.037341 -0.076545 -0.0143677 -1.35595e-016 -1 -1.85711e-018
0.0199655 -0.076545 -0.0143677 -0 -1 -0
0.00259111 -0.076545 -0.0143677 -1.31228e-016 -1 -5.33979e-025
-0.0147833 -0.076545 -0.0143677 -1.81197e-017 -1 1.83129e-016
-0.0321587 -0.076545 -0.0143677 2.61844e-018 -1 2.45825e-017
-0.0495331 -0.076545 -0.0143677 3.2802e-017 -1 -5.57312e-018
-0.0669075 -0.076545 -0.0143677 0 -1 0
-0.084283 -0.076545 -0.0143677 -1.3797e-017 -1 4.92606e-017
-0.101657 -0.076545 -0.0143677 9.01231e-017 -1 -1.85758e-018
-0.119032 -0.076545 -0.0143677 0 -1 0
-0.136407 -0.076545 -0.0143677 -1.37968e-017 -1 4.91056e-017
-0.153782 -0.076545 -0.0143677 -7.83276e-017 -1 5.57174e-018
-0.171157 -0.076545 -0.0143677 -1.3797e-017 -1 4.92581e-017
-0.188531 -0.076545 -0.0143677 -0 -1 -0
-0.205906 -0.076545 -0.0143677 1.3797e-017 -1 4.92681e-017
-0.223281 -0.076545 -0.0143677 -0 -1 -0
-0.240656 -0.076545 -0.0143677 -2.36794e-017 -1 2.13699e-022
-0.25803 -0.076545 -0.0143677 2.69281e-018 -1 1.7729e-016
-0.275406 -0.076545 -0.0143677 0 -1 0
-0.29278 -0.076545 -0.0143677 -0 -1 -0
-0.310155 -0.076545 -0.0143677 -0 -1 -0
-0.32753 -0.076545 -0.0143677 -1.18409e-017 -1 7.43033e-018
-0.344904 -0.076545 -0.0143677 -0.00613119 -0.999981 0.000171076
-0.36228 -0.076545 -0.0143677 -0.0386978 -0.99925 0.00112926
-0.379654 -0.0759021 -0.0143677 -0.135266 -0.990809 0.000842958
-0.396385 -0.0733271 -0.0137248 -0.332811 -0.942991 -0.0020632
-0.411187 -0.0668924 -0.0111509 -0.59172 -0.806127 -0.00510932
0.419554 0.850093 -0.0313062 0.0971809 0.9948 0.0304858
0.429033 0.841135 -0.0228722 0.685317 0.727563 0.0315146
0.408738 0.849984 -0.0384078 -0.166519 0.984317 0.0582321
0.398938 0.840866 -0.028429 -0.650537 0.759382 -0.0118317
0.434338 0.826827 -0.029454 0.9444 0.327511 0.0290647
0.391718 0.826509 -0.0389131 -0.909236 0.41625 0.00500509
0.436526 0.809709 -0.031444 0.99447 0.104208 0.0130093
0.387364 0.809709 -0.0341328 -0.979846 0.199575 -0.00841858
0.436963 0.792196 -0.0317432 0.99962 0.0270239 0.00537021
0.385455 0.792265 -0.032294 -0.996084 0.0880335 -0.00817524
0.436963 0.774821 -0.0317432 0.999995 0.00328653 6.6471e-006
0.384835 0.774821 -0.0317432 -0.999583 0.0286109 -0.00397778
0.436963 0.757446 -0.0317432 1 0 0
0.384835 0.757446 -0.0317432 -0.999989 0.0046269 0.000187214
0.436963 0.740072 -0.0317432 1 -0 0
0.384835 0.740072 -0.0317432 -1 0 -0
0.436963 0.722696 -0.0317432 1 -0 0
0.384835 0.722696 -0.0317432 -1 -0 -0
0.436963 0.705322 -0.0317432 1 -0 0
0.384835 0.705322 -0.0317432 -1 0 -0
0.436963 0.687947 -0.0317432 1 0 0
0.384835 0.687947 -0.0317432 -1 -0 0
0.436963 0.670572 -0.0317432 1 -0 0
0.384835 0.670572 -0.0317432 -0.999995 -0.00327867 6.63123e-006
0.436963 0.653197 -0.0317432 1 -0 0
0.384835 0.653197 -0.0317432 -0.999716 -0.0232855 0.00514446
0.436963 0.635823 -0.0317432 0.999973 -0.00726823 0.000453854
0.385271 0.635684 -0.031444 -0.99667 -0.0804357 0.0133562
0.436963 0.618448 -0.0317432 0.99899 -0.0447429 -0.00403473
0.387064 0.617896 -0.0300649 -0.981449 -0.190339 0.0229882
0.436319 0.601716 -0.0323861 0.982725 -0.18476 -0.0107054
0.391526 0.60093 -0.025151 -0.925937 -0.376987 0.0228336
0.433745 0.586916 -0.03496 0.835141 -0.550028 0.00311153
0.398475 0.585887 -0.035194 -0.732723 -0.680218 0.0205186
0.427791 0.576665 -0.040844 0.646562 -0.76282 0.00803083
0.418589 0.572753 -0.0325062 0.0455045 -0.998749 0.0207531
0.408338 0.576201 -0.0252432 -0.341382 -0.939862 0.0108511
-0.0399778 0.0729995 -0.0317266 0.190506 0.978661 -0.0770019
-0.0558934 0.0770063 -0.0270644 0.151014 0.985898 -0.0721127
-0.0693582 0.0781525 -0.0296228 0.106695 0.989796 -0.0944423
-0.0856155 0.0789114 -0.0305711 0.0476738 0.994529 -0.0929511
-0.102402 0.0791413 -0.0314812 0.00442119 0.996092 -0.088208
-0.119579 0.0791878 -0.0318395 -0.0455981 0.994958 -0.0893302
-0.136632 0.07811 -0.0318395 -0.11888 0.988342 -0.0951195
-0.153649 0.0754802 -0.0315775 -0.190584 0.976317 -0.102388
0.0816461 0.0557649 -0.0317266 0.191717 0.97764 -0.0863975
0.0657295 0.0597023 -0.0270644 0.149667 0.986188 -0.0709403
0.0522646 0.0609199 -0.0296228 0.11743 0.990385 -0.0731338
0.0360726 0.0618497 -0.0304738 0.0829291 0.99527 -0.0506079
0.0194416 0.0628581 -0.031357 0.0799181 0.996388 -0.0287119
0.0020434 0.0644246 -0.0324358 0.114357 0.993051 -0.0277766
-0.017702 0.0676777 -0.0357055 0.17386 0.983304 -0.053725
-0.170954 0.070583 -0.0315081 -0.211589 0.972818 -0.0940987
-0.188462 0.066134 -0.0316738 -0.194965 0.977159 -0.0845507
-0.205906 0.0635021 -0.0317432 -0.164337 0.983581 -0.0745792
-0.223281 0.0613299 -0.0317432 -0.171777 0.981728 -0.0818704
-0.240656 0.0583533 -0.0317432 -0.211332 0.972247 -0.100374
0.209222 0.0384433 -0.0322433 0.199947 0.978619 -0.048241
0.191402 0.0424242 -0.0310257 0.156584 0.986627 -0.045259
0.174965 0.044263 -0.0307223 0.0978577 0.994516 -0.0369112
0.158509 0.0449433 -0.0312876 0.0654899 0.997643 -0.0204684
0.141424 0.0457022 -0.0317152 0.0719231 0.997258 -0.017405
0.123764 0.0472915 -0.0325332 0.115507 0.992838 -0.0305078
0.103921 0.0505094 -0.0357055 0.169091 0.983318 -0.0670375
-0.258031 0.0532862 -0.0317432 -0.221603 0.969946 -0.100484
-0.275406 0.0487813 -0.0317432 -0.181804 0.97998 -0.0811603
-0.29278 0.0461277 -0.0317432 -0.117515 0.991895 -0.0483227
-0.310155 0.0451617 -0.0317432 -0.0848674 0.995979 -0.0286959
-0.32753 0.0441968 -0.0317432 -0.128585 0.99102 -0.0366723
-0.344904 0.0417026 -0.0317432 -0.203068 0.977155 -0.0627028
0.334895 0.0221001 -0.0283741 0.227911 0.972763 -0.0422906
0.31571 0.0254774 -0.0310122 0.133444 0.990665 -0.0278535
0.298032 0.0270864 -0.0316738 0.0711983 0.997408 -0.0103689
0.280588 0.0277066 -0.0317432 0.0546784 0.998492 -0.00497812
0.263213 0.0283506 -0.0317432 0.0872253 0.996187 -0.00185098
0.2457 0.0302349 -0.0318809 0.143375 0.98956 -0.0146346
0.227755 0.0339384 -0.0324358 0.193088 0.98054 -0.0354817
-0.36228 0.0366355 -0.0317432 -0.26703 0.960448 -0.0789565
-0.379654 0.0313262 -0.0317432 -0.32293 0.944126 -0.0658907
-0.396385 0.0256845 -0.0325238 -0.442489 0.895037 -0.0557931
0.382006 0.00209897 -0.0297801 0.673345 0.739323 -0.00283723
0.371307 0.00922847 -0.0355875 0.5241 0.851376 -0.0218381
0.356155 0.0158434 -0.0323354 0.371744 0.927681 -0.0348454
-0.411172 0.0176884 -0.0353462 -0.63295 0.772996 -0.0430301
0.392406 -0.00982012 -0.0226051 0.871439 0.489654 0.0288782
-0.421977 0.00647544 -0.0413161 -0.826101 0.561228 -0.0507998
-0.428359 -0.00776078 -0.0348731 -0.95638 0.290109 -0.0342733
0.398202 -0.0241381 -0.0299634 0.98498 0.169899 0.030814
-0.430447 -0.0241568 -0.0316417 -0.999795 0.000771395 -0.0202197
0.39826 -0.0398725 -0.0343399 0.982303 -0.183603 0.0370242
-0.42847 -0.0409162 -0.0286122 -0.956805 -0.289937 -0.0214651
0.392364 -0.0552673 -0.0407933 0.832393 -0.552935 0.037203
-0.422081 -0.0558834 -0.0221816 -0.811148 -0.584542 -0.0187115
0.381103 -0.0663032 -0.0341007 0.596866 -0.801254 0.0417491
0.365906 -0.0731894 -0.0321376 0.343655 -0.938551 0.031992
0.349492 -0.0759021 -0.0319358 0.14459 -0.9894 0.0134852
0.332616 -0.076545 -0.0318395 0.0450012 -0.998975 0.00490071
0.315338 -0.076545 -0.0317432 0.00841133 -0.999963 0.00187755
0.297962 -0.076545 -0.0317432 0.000580611 -1 0.000423183
0.280588 -0.076545 -0.0317432 -1.18372e-017 -1 -6.73235e-017
0.263213 -0.076545 -0.0317432 -0 -1 -0
0.245838 -0.076545 -0.0317432 1.12691e-017 -1 5.43393e-017
0.228464 -0.076545 -0.0317432 1.18371e-017 -1 -6.73238e-017
0.211089 -0.076545 -0.0317432 -0 -1 -0
0.193714 -0.076545 -0.0317432 1.12696e-017 -1 5.46242e-017
0.176339 -0.076545 -0.0317432 1.17539e-017 -1 1.27221e-016
0.158964 -0.076545 -0.0317432 -1.3797e-017 -1 -4.92678e-017
0.141589 -0.076545 -0.0317432 9.01226e-017 -1 1.17928e-016
0.124215 -0.076545 -0.0317432 -1.3797e-017 -1 4.92603e-017
0.10684 -0.076545 -0.0317432 0 -1 0
0.0894652 -0.076545 -0.0317432 -9.01226e-017 -1 -1.85753e-018
0.0720908 -0.076545 -0.0317432 -0 -1 -0
0.0547154 -0.076545 -0.0317432 1.67986e-017 -1 2.36275e-017
0.037341 -0.076545 -0.0317432 -1.35595e-016 -1 1.85711e-018
0.0199655 -0.076545 -0.0317432 0 -1 0
0.00259111 -0.076545 -0.0317432 -1.31228e-016 -1 5.33979e-025
-0.0147833 -0.076545 -0.0317432 -1.81197e-017 -1 -1.83129e-016
-0.0321587 -0.076545 -0.0317432 1.5483e-017 -1 -9.32844e-018
-0.0495331 -0.076545 -0.0317432 3.2802e-017 -1 -5.432e-017
-0.0669075 -0.076545 -0.0317432 -0 -1 -0
-0.084283 -0.076545 -0.0317432 -1.3797e-017 -1 -4.92603e-017
-0.101657 -0.076545 -0.0317432 9.01231e-017 -1 1.85758e-018
-0.119032 -0.076545 -0.0317432 -0 -1 -0
-0.136407 -0.076545 -0.0317432 4.1493e-017 -1 -5.03521e-017
-0.153782 -0.076545 -0.0317432 -7.83276e-017 -1 -5.57174e-018
-0.171157 -0.076545 -0.0317432 -1.3797e-017 -1 -4.92578e-017
-0.188531 -0.076545 -0.0317432 0 -1 0
-0.205906 -0.076545 -0.0317432 1.3797e-017 -1 -4.92678e-017
-0.223281 -0.076545 -0.0317432 0 -1 0
-0.240656 -0.076545 -0.0317432 -2.36794e-017 -1 1.19786e-016
-0.25803 -0.076545 -0.0317432 1.12691e-017 -1 -5.43293e-017
-0.275406 -0.076545 -0.0317432 -0 -1 -0
-0.29278 -0.076545 -0.0317432 0 -1 0
-0.310155 -0.076545 -0.0317432 0 -1 0
-0.32753 -0.076545 -0.0317432 -3.2218e-017 -1 5.31825e-017
-0.344904 -0.076545 -0.0317432 -0.0067082 -0.999977 -0.000111704
-0.36228 -0.076545 -0.0317432 -0.0401616 -0.999193 0.000585163
-0.379573 -0.0759021 -0.0317432 -0.142917 -0.989721 -0.00518035
-0.396178 -0.0732588 -0.0311913 -0.336555 -0.94159 -0.0118105
-0.411014 -0.0667536 -0.0287096 -0.592877 -0.80505 -0.0197879
0.418947 0.852585 -0.0496094 -0.0592089 0.993584 0.0963606
0.429017 0.843145 -0.0444367 0.647638 0.757119 0.0856465
0.42647 0.850733 -0.0605852 0.441152 0.892527 0.0937049
0.408846 0.851455 -0.0561725 -0.200933 0.977468 0.0646637
0.398874 0.841301 -0.0466669 -0.687522 0.723811 0.0583968
0.435041 0.826771 -0.0479269 0.953161 0.300179 0.0371163
0.391486 0.826593 -0.0571934 -0.916869 0.397874 0.0323594
0.436825 0.80964 -0.0490482 0.996055 0.0862319 0.0209307
0.387202 0.80964 -0.0517836 -0.980635 0.195459 0.0122461
0.436963 0.792196 -0.0491176 0.999831 0.0177595 0.00484644
0.385478 0.792196 -0.0497616 -0.996269 0.0863023 0.000744637
0.436963 0.774821 -0.0491176 1 0.000742931 2.37362e-005
0.384835 0.774821 -0.0491176 -0.999568 0.0293659 -0.00112681
0.436963 0.757446 -0.0491176 1 0 0
0.384835 0.757446 -0.0491176 -0.99998 0.0061439 0.00123551
0.436963 0.740072 -0.0491176 1 -0 0
0.384835 0.740072 -0.0491176 -1 0 -0
0.436963 0.722696 -0.0491176 1 0 0
0.384835 0.722696 -0.0491176 -1 -0 0
0.436963 0.705322 -0.0491176 1 0 0
0.384835 0.705322 -0.0491176 -1 -0 -0
0.436963 0.687947 -0.0491176 1 -0 0
0.384835 0.687947 -0.0491176 -1 0 -0
0.436963 0.670572 -0.0491176 1 0 0
0.384835 0.670572 -0.0491176 -1 -0.000743089 2.37409e-005
0.436963 0.653197 -0.0491176 1 -0 0
0.384835 0.653197 -0.0491176 -0.999871 -0.015519 0.00416904
0.436963 0.635823 -0.0491176 0.999972 -0.00751777 -2.23148e-005
0.384973 0.635754 -0.0490482 -0.997664 -0.0659153 0.0179439
0.436963 0.618448 -0.0491176 0.99899 -0.0447429 -0.00403472
0.386452 0.617993 -0.0481474 -0.983668 -0.175704 0.0390511
0.436319 0.601716 -0.0497616 0.982045 -0.188317 -0.0111648
0.391253 0.59902 -0.0454772 -0.912587 -0.40606 0.0479641
0.433745 0.586916 -0.0523355 0.829175 -0.558975 0.0039685
0.398214 0.583972 -0.0499624 -0.689524 -0.721316 0.0652691
0.427469 0.576711 -0.058471 0.577867 -0.815893 0.0197065
0.417738 0.572983 -0.0503176 0.0697301 -0.997044 0.0322608
0.407622 0.576302 -0.0427325 -0.331987 -0.942605 0.0357898
-0.0539955 0.0735441 -0.0457495 0.143554 0.979307 -0.142654
-0.0724239 0.0767309 -0.0437937 0.086486 0.985872 -0.143445
-0.0866778 0.0769121 -0.0477116 0.0468405 0.985898 -0.160661
-0.104144 0.0771647 -0.0488836 -0.00139582 0.98615 -0.16585
-0.121569 0.0770084 -0.0488556 -0.0600162 0.983579 -0.170205
-0.138508 0.0756624 -0.048194 -0.130379 0.976701 -0.170458
0.0673716 0.0566284 -0.0457288 0.158866 0.979685 -0.122391
0.0490115 0.0601165 -0.0435794 0.121121 0.987378 -0.102051
0.0350797 0.0609676 -0.0468563 0.106037 0.990267 -0.0901527
0.0186558 0.0622866 -0.0480832 0.090803 0.993642 -0.0665548
0.00233331 0.0637558 -0.0501281 0.108452 0.991981 -0.0649041
-0.0109939 0.0647259 -0.0545377 0.130847 0.987433 -0.0886243
-0.0296376 0.0677906 -0.0535531 0.153709 0.980678 -0.121015
-0.154756 0.0721225 -0.048194 -0.191416 0.966265 -0.172313
-0.171281 0.0678392 -0.0488556 -0.198881 0.96783 -0.154118
-0.188601 0.0640881 -0.0491869 -0.177412 0.973963 -0.141141
-0.206141 0.0618269 -0.049159 -0.165681 0.975677 -0.143539
-0.223543 0.0593586 -0.0489933 -0.190485 0.969186 -0.156186
0.203545 0.0384288 -0.048984 0.192681 0.977569 -0.0850465
0.18759 0.0423507 -0.0443684 0.147929 0.986681 -0.0676649
0.174251 0.0435652 -0.0469392 0.115157 0.991425 -0.0617751
0.158095 0.0444753 -0.0479455 0.0814143 0.995712 -0.0439162
0.141424 0.0453802 -0.0490896 0.0630168 0.997478 -0.0326704
0.124412 0.0465191 -0.0505836 0.0908773 0.994747 -0.0471089
0.110745 0.0473505 -0.0546537 0.118683 0.990034 -0.075806
0.091919 0.0505591 -0.0536038 0.157005 0.980975 -0.114181
-0.240752 0.0551851 -0.0490213 -0.216784 0.962755 -0.161581
-0.258031 0.0505518 -0.0491176 -0.200149 0.970109 -0.13722
-0.275406 0.0468514 -0.0491176 -0.140668 0.98608 -0.0886453
-0.29278 0.045403 -0.0491176 -0.0867413 0.995013 -0.0492485
-0.310155 0.0450012 -0.0491176 -0.0909308 0.994769 -0.0465338
-0.32753 0.0433923 -0.0491176 -0.156536 0.984349 -0.0809536
0.333343 0.0214551 -0.0484829 0.232097 0.972178 -0.0316512
0.315475 0.0251782 -0.0489799 0.150993 0.988427 -0.0145768
0.297963 0.0270636 -0.0491176 0.0877383 0.996139 -0.00293083
0.280588 0.0277066 -0.0491176 0.0547124 0.998488 -0.005265
0.263144 0.0283278 -0.0491869 0.0679945 0.997615 -0.0118904
0.245388 0.029916 -0.0499076 0.11854 0.992292 -0.0361205
0.225612 0.0331515 -0.0530302 0.172919 0.982348 -0.0713558
-0.344904 0.0397727 -0.0491176 -0.225836 0.967737 -0.11173
-0.36228 0.0349458 -0.0491176 -0.262549 0.958854 -0.108017
-0.379654 0.0295112 -0.0491869 -0.310896 0.945756 -0.094288
