ply
format ascii 1.0
element vertex 803
property float x
property float y
property float z
property float nx
property float ny
property float nz
end_header
-0.109554 -0.0832845 0.0726539 0.0125885 0.0240689 -0.999631
-0.127608 -0.0832845 0.0726539 -0.0125886 0.0240689 -0.999631
-0.14566 -0.0832845 0.0726539 -0.0125887 0.024069 -0.999631
-0.163714 -0.0832845 0.0726539 0.0125886 0.024069 -0.999631
-0.181767 -0.0832845 0.0726539 -0.0125844 0.0240687 -0.999631
-0.19982 -0.0832845 0.0726539 -0.012705 0.0242774 -0.999625
-0.217874 -0.0832845 0.0726539 0.0130694 0.0249241 -0.999604
-0.235927 -0.0832845 0.0726539 -0 0 -1
-0.25398 -0.0832845 0.0726539 0.00769996 -0.000385705 -0.99997
-0.272033 -0.0832845 0.0726539 0.0484373 -0.0054779 -0.998811
-0.290087 -0.0832128 0.071937 0.16181 -0.0231463 -0.98655
-0.307318 -0.0826108 0.068772 0.372434 -0.0475433 -0.92684
-0.323316 -0.0804716 0.0602744 0.656715 -0.0955631 -0.748059
0.305001 -0.101337 0.0693097 -0.335367 -0.000874232 -0.942087
0.287616 -0.101337 0.0719844 -0.127134 -0.000240674 -0.991886
0.269563 -0.101337 0.0726539 -0.0385694 0.00270895 -0.999252
0.25151 -0.101337 0.0726539 -0.00485634 -5.66132e-009 -0.999988
0.233457 -0.101337 0.0726539 -0 0 -1
0.215403 -0.101337 0.0726539 0.0177556 -0.0117774 -0.999773
0.197351 -0.101337 0.0726539 -0.00940686 -0.00312747 -0.999951
0.179297 -0.101337 0.0726539 -0.0169278 -0.0112338 -0.999794
0.161243 -0.101337 0.0726539 0.0240689 0.0125886 -0.999631
0.143191 -0.101337 0.0726539 -0.0112335 -0.0169274 -0.999794
0.125137 -0.101337 0.0726539 0.0169273 -0.0112334 -0.999794
0.107084 -0.101337 0.0726539 -0.0112334 -0.0169274 -0.999794
0.0890306 -0.101337 0.0726539 -0.000168222 -0.00128193 -0.999999
0.070978 -0.101337 0.0726539 -0.0112333 -0.0169274 -0.999794
0.0529243 -0.101337 0.0726539 0.00128193 0.000168274 -0.999999
0.0348716 -0.101337 0.0726539 -0.0112334 -0.0169274 -0.999794
0.0168179 -0.101337 0.0726539 0.0112334 -0.0169274 -0.999794
-0.00123475 -0.101337 0.0726539 -0.0112334 -0.0169274 -0.999794
-0.0192885 -0.101337 0.0726539 0.0112334 -0.0169274 -0.999794
-0.0373411 -0.101337 0.0726539 -0.0112334 -0.0169274 -0.999794
-0.0553948 -0.101337 0.0726539 0.00128196 0.00016828 -0.999999
-0.0734475 -0.101337 0.0726539 -0.0169273 -0.0112334 -0.999794
-0.0915012 -0.101337 0.0726539 0.0169273 -0.0112334 -0.999794
-0.109554 -0.101337 0.0726539 -0.0112334 -0.0169274 -0.999794
-0.127608 -0.101337 0.0726539 0.00128197 0.000168277 -0.999999
-0.14566 -0.101337 0.0726539 -0.0169274 -0.0112334 -0.999794
-0.163714 -0.101337 0.0726539 0.0169273 -0.0112334 -0.999794
-0.181767 -0.101337 0.0726539 -0.00931874 -0.00308097 -0.999952
-0.19982 -0.101337 0.0726539 -0.0171123 -0.0113558 -0.999789
-0.217874 -0.101337 0.0726539 0.00968947 -0.00330753 -0.999948
-0.235927 -0.101337 0.0726539 -0 0 -1
-0.25398 -0.101337 0.0726539 0.00485669 -5.66182e-009 -0.999988
-0.272033 -0.101337 0.0726539 0.0434456 -0.002206 -0.999053
-0.290087 -0.101337 0.0719844 0.141339 -0.00756863 -0.989932
-0.307471 -0.101194 0.0692148 0.354128 -0.0229494 -0.934915
-0.322898 -0.100764 0.0620361 0.605353 -0.0384336 -0.795028
0.305001 -0.119391 0.0693097 -0.335313 -2.44597e-007 -0.942107
0.287616 -0.119391 0.0719844 -0.126984 -4.70262e-008 -0.991905
0.269563 -0.119391 0.0726539 -0.0409517 9.27866e-008 -0.999161
0.25151 -0.119391 0.0726539 -0.00485634 5.86959e-009 -0.999988
0.233457 -0.119391 0.0726539 0 -0 -1
0.215403 -0.119391 0.0726539 -0.000159975 0.00121775 -0.999999
0.197351 -0.119391 0.0726539 -0.00940685 0.00312753 -0.999951
0.179297 -0.119391 0.0726539 -0.0169278 0.0112339 -0.999794
0.161243 -0.119391 0.0726539 0.0240689 -0.0125885 -0.999631
0.143191 -0.119391 0.0726539 0.000168204 0.00128198 -0.999999
0.125137 -0.119391 0.0726539 0.0169273 0.0112334 -0.999794
0.107084 -0.119391 0.0726539 -0.00128194 -0.000168224 -0.999999
0.0890306 -0.119391 0.0726539 -0.000168229 0.00128198 -0.999999
0.070978 -0.119391 0.0726539 -0.0012819 -0.000168219 -0.999999
0.0529243 -0.119391 0.0726539 0.00128193 -0.000168222 -0.999999
0.0348716 -0.119391 0.0726539 -0.00128198 -0.000168225 -0.999999
0.0168179 -0.119391 0.0726539 0.00128194 -0.000168221 -0.999999
-0.00123475 -0.119391 0.0726539 -0.00128193 -0.000168221 -0.999999
-0.0192885 -0.119391 0.0726539 0.00128194 -0.000168223 -0.999999
-0.0373411 -0.119391 0.0726539 -0.00128195 -0.000168225 -0.999999
-0.0553948 -0.119391 0.0726539 0.00128196 -0.000168227 -0.999999
-0.0734475 -0.119391 0.0726539 -0.0169273 0.0112334 -0.999794
-0.0915012 -0.119391 0.0726539 0.0169273 0.0112334 -0.999794
-0.109554 -0.119391 0.0726539 -0.00128199 -0.000168228 -0.999999
-0.127608 -0.119391 0.0726539 0.00128197 -0.000168225 -0.999999
-0.14566 -0.119391 0.0726539 -0.0169274 0.0112334 -0.999794
-0.163714 -0.119391 0.0726539 0.0169273 0.0112334 -0.999794
-0.181767 -0.119391 0.0726539 -0.00931874 0.00308103 -0.999952
-0.19982 -0.119391 0.0726539 -0.00503637 -0.0122233 -0.999913
-0.217874 -0.119391 0.0726539 0.00968946 0.00330759 -0.999948
-0.235927 -0.119391 0.0726539 0 -0 -1
-0.25398 -0.119391 0.0726539 0.00485669 5.87003e-009 -0.999988
-0.272033 -0.119391 0.0726539 0.0413068 -0.000350481 -0.999146
-0.290087 -0.119391 0.0719844 0.140949 -0.00854609 -0.98998
-0.307471 -0.119391 0.0693097 0.339498 -0.00821843 -0.940571
-0.32285 -0.119319 0.0625749 0.593676 -0.0147026 -0.80457
0.305001 -0.137443 0.0693097 -0.335313 2.58698e-007 -0.942107
0.287616 -0.137443 0.0719844 -0.126984 4.73438e-008 -0.991905
0.269563 -0.137443 0.0726539 -0.0409517 -9.81333e-008 -0.999161
0.25151 -0.137443 0.0726539 -0.00485634 -5.42809e-009 -0.999988
0.233457 -0.137443 0.0726539 -0 0 -1
0.215403 -0.137443 0.0726539 0.0117774 -0.0177555 -0.999773
0.197351 -0.137443 0.0726539 -0.00940686 -0.00312739 -0.999951
0.179297 -0.137443 0.0726539 -0.0125894 -0.0240739 -0.999631
0.161243 -0.137443 0.0726539 0.024069 -0.0125886 -0.999631
0.143191 -0.137443 0.0726539 -0.0112335 -0.0169273 -0.999794
0.125137 -0.137443 0.0726539 0.0112333 -0.0169273 -0.999794
0.107084 -0.137443 0.0726539 -0.0112334 -0.0169273 -0.999794
0.0890306 -0.137443 0.0726539 0.0112334 -0.0169273 -0.999794
0.070978 -0.137443 0.0726539 -0.0112334 -0.0169273 -0.999794
0.0529243 -0.137443 0.0726539 0.0112334 -0.0169273 -0.999794
0.0348716 -0.137443 0.0726539 -0.0112334 -0.0169273 -0.999794
0.0168179 -0.137443 0.0726539 0.0112334 -0.0169273 -0.999794
-0.00123475 -0.137443 0.0726539 -0.0112334 -0.0169273 -0.999794
-0.0192885 -0.137443 0.0726539 0.0112334 -0.0169273 -0.999794
-0.0373411 -0.137443 0.0726539 -0.0112334 -0.0169273 -0.999794
-0.0553948 -0.137443 0.0726539 0.0112334 -0.0169273 -0.999794
-0.0734475 -0.137443 0.0726539 -0.0112333 -0.0169273 -0.999794
-0.0915012 -0.137443 0.0726539 0.0112334 -0.0169273 -0.999794
-0.109554 -0.137443 0.0726539 -0.0112334 -0.0169273 -0.999794
-0.127608 -0.137443 0.0726539 0.0112334 -0.0169273 -0.999794
-0.14566 -0.137443 0.0726539 -0.0112334 -0.0169273 -0.999794
-0.163714 -0.137443 0.0726539 0.0112333 -0.0169273 -0.999794
-0.181767 -0.137443 0.0726539 -0.00931875 -0.00308088 -0.999952
-0.19982 -0.137443 0.0726539 -0.0127057 -0.0242816 -0.999624
-0.217874 -0.137443 0.0726539 0.00968947 -0.00330744 -0.999948
-0.235927 -0.137443 0.0726539 -2.12772e-017 3.36744e-017 -1
-0.25398 -0.137443 0.0726539 0.00485669 -5.42869e-009 -0.999988
-0.272033 -0.137443 0.0726539 0.0409511 -9.81391e-008 -0.999161
-0.290087 -0.137443 0.0719844 0.134849 -0.00226466 -0.990864
-0.307471 -0.137443 0.0693097 0.335247 -0.00942167 -0.942083
-0.32285 -0.137443 0.0626234 0.591848 -0.00407519 -0.806039
0.305001 -0.155497 0.0693097 -0.335313 -2.61206e-007 -0.942107
0.287616 -0.155497 0.0719844 -0.126984 -4.68806e-008 -0.991905
0.269563 -0.155497 0.0726539 -0.0409517 9.90839e-008 -0.999161
0.25151 -0.155497 0.0726539 -0.00485634 5.18023e-009 -0.999988
0.233457 -0.155497 0.0726539 -0 -0 -1
0.215403 -0.155497 0.0726539 0.0117774 0.0177554 -0.999773
0.197351 -0.155497 0.0726539 -0.00940687 0.00312733 -0.999951
0.179297 -0.155497 0.0726539 -0.0125894 0.0240738 -0.999631
0.161243 -0.155497 0.0726539 0.024069 0.0125886 -0.999631
0.143191 -0.155497 0.0726539 -0.0112335 0.0169273 -0.999794
0.125137 -0.155497 0.0726539 0.0112334 0.0169273 -0.999794
0.107084 -0.155497 0.0726539 -0.0112334 0.0169272 -0.999794
0.0890306 -0.155497 0.0726539 0.0112335 0.0169273 -0.999794
0.070978 -0.155497 0.0726539 -0.0112334 0.0169272 -0.999794
0.0529243 -0.155497 0.0726539 0.0112334 0.0169273 -0.999794
0.0348716 -0.155497 0.0726539 -0.0112334 0.0169272 -0.999794
0.0168179 -0.155497 0.0726539 0.0112334 0.0169272 -0.999794
-0.00123475 -0.155497 0.0726539 -0.0112334 0.0169273 -0.999794
-0.0192885 -0.155497 0.0726539 0.0112334 0.0169273 -0.999794
-0.0373411 -0.155497 0.0726539 -0.0112334 0.0169273 -0.999794
-0.0553948 -0.155497 0.0726539 0.0112334 0.0169272 -0.999794
-0.0734475 -0.155497 0.0726539 -0.0112333 0.0169273 -0.999794
-0.0915012 -0.155497 0.0726539 0.0112334 0.0169273 -0.999794
-0.109554 -0.155497 0.0726539 -0.0112335 0.0169272 -0.999794
-0.127608 -0.155497 0.0726539 0.0112334 0.0169272 -0.999794
-0.14566 -0.155497 0.0726539 -0.0112334 0.0169273 -0.999794
-0.163714 -0.155497 0.0726539 0.0112334 0.0169273 -0.999794
-0.181767 -0.155497 0.0726539 -0.00931876 0.00308083 -0.999952
-0.19982 -0.155497 0.0726539 -0.0127057 0.0242816 -0.999624
-0.217874 -0.155497 0.0726539 0.00968948 0.00330738 -0.999948
-0.235927 -0.155497 0.0726539 0 -0 -1
-0.25398 -0.155497 0.0726539 0.00485669 5.18088e-009 -0.999988
-0.272033 -0.155497 0.0726539 0.0409511 9.90898e-008 -0.999161
-0.290087 -0.155497 0.0719844 0.134627 0.00185723 -0.990895
-0.307471 -0.155497 0.0693097 0.335125 -0.00169388 -0.942172
-0.32285 -0.155497 0.0626234 0.592777 -0.00432953 -0.805355
0.305001 -0.17355 0.0693097 -0.335251 -0.000202738 -0.942129
0.287616 -0.17355 0.0719844 -0.126984 4.5522e-008 -0.991905
0.269563 -0.17355 0.0726539 -0.0409517 -8.78754e-008 -0.999161
0.25151 -0.17355 0.0726539 -0.00485634 -5.87992e-009 -0.999988
0.233457 -0.17355 0.0726539 -0 0 -1
0.215403 -0.17355 0.0726539 -0.000159962 -0.00121783 -0.999999
0.197351 -0.17355 0.0726539 -0.0242766 0.0127046 -0.999625
0.179297 -0.17355 0.0726539 -0.00497736 0.0120991 -0.999914
0.161243 -0.17355 0.0726539 0.0240689 0.0125885 -0.999631
0.143191 -0.17355 0.0726539 0.000168193 -0.00128205 -0.999999
0.125137 -0.17355 0.0726539 0.0169273 -0.0112335 -0.999794
0.107084 -0.17355 0.0726539 0.000168276 -0.00128205 -0.999999
0.0890306 -0.17355 0.0726539 -0.000168217 -0.00128205 -0.999999
0.070978 -0.17355 0.0726539 -0.0169273 -0.0112335 -0.999794
0.0529243 -0.17355 0.0726539 0.0169273 -0.0112335 -0.999794
0.0348716 -0.17355 0.0726539 0.000168229 -0.00128205 -0.999999
0.0168179 -0.17355 0.0726539 -0.000168273 -0.00128205 -0.999999
-0.00123475 -0.17355 0.0726539 -0.0169273 -0.0112335 -0.999794
-0.0192885 -0.17355 0.0726539 -0.000168273 -0.00128205 -0.999999
-0.0373411 -0.17355 0.0726539 0.000168257 -0.00128205 -0.999999
-0.0553948 -0.17355 0.0726539 -0.000168248 -0.00128205 -0.999999
-0.0734475 -0.17355 0.0726539 -0.0169273 -0.0112335 -0.999794
-0.0915012 -0.17355 0.0726539 0.0169273 -0.0112335 -0.999794
-0.109554 -0.17355 0.0726539 0.000168219 -0.00128205 -0.999999
-0.127608 -0.17355 0.0726539 -0.000168245 -0.00128205 -0.999999
-0.14566 -0.17355 0.0726539 -0.0169273 -0.0112335 -0.999794
-0.163714 -0.17355 0.0726539 0.0169273 -0.0112335 -0.999794
-0.181767 -0.17355 0.0726539 -0.0240689 0.0125885 -0.999631
-0.19982 -0.17355 0.0726539 -0.0031271 0.00941382 -0.999951
-0.217874 -0.17355 0.0726539 0.0249188 0.0130779 -0.999604
-0.235927 -0.17355 0.0726539 -0 0 -1
-0.25398 -0.17355 0.0726539 0.00485669 -5.88029e-009 -0.999988
-0.272033 -0.17355 0.0726539 0.0405897 -0.000352336 -0.999176
-0.290087 -0.17355 0.0719844 0.136817 -0.00223801 -0.990594
-0.307471 -0.17355 0.0693097 0.331434 -0.00751256 -0.943449
-0.32285 -0.17355 0.0626234 0.589192 -0.0154802 -0.807845
0.305001 -0.191604 0.0693097 -0.332422 -0.00188698 -0.943129
0.287616 -0.191604 0.0719844 -0.126657 -0.000333598 -0.991947
0.269563 -0.191604 0.0726539 -0.0409517 8.49447e-008 -0.999161
0.25151 -0.191604 0.0726539 -0.00485634 6.009e-009 -0.999988
0.233457 -0.191604 0.0726539 0 -0 -1
0.215403 -0.191604 0.0726539 0.0177556 0.0117776 -0.999773
0.197351 -0.191604 0.0726539 -0.0242766 -0.0127046 -0.999625
0.179297 -0.191604 0.0726539 -0.00497736 -0.0120991 -0.999914
0.161243 -0.191604 0.0726539 0.0240689 -0.0125884 -0.999631
0.143191 -0.191604 0.0726539 -0.00128201 -0.000168112 -0.999999
0.125137 -0.191604 0.0726539 0.0169273 0.0112336 -0.999794
0.107084 -0.191604 0.0726539 -0.00128193 -0.000168101 -0.999999
0.0890306 -0.191604 0.0726539 0.00128199 -0.000168106 -0.999999
0.070978 -0.191604 0.0726539 -0.0012819 -0.000168096 -0.999999
0.0529243 -0.191604 0.0726539 0.00128193 -0.000168099 -0.999999
0.0348716 -0.191604 0.0726539 -0.00128198 -0.000168102 -0.999999
0.0168179 -0.191604 0.0726539 0.00128194 -0.000168098 -0.999999
-0.00123475 -0.191604 0.0726539 -0.00128192 -0.000168098 -0.999999
-0.0192885 -0.191604 0.0726539 0.00128194 -0.0001681 -0.999999
-0.0373411 -0.191604 0.0726539 -0.00128195 -0.000168102 -0.999999
-0.0553948 -0.191604 0.0726539 0.00128196 -0.000168105 -0.999999
-0.0734475 -0.191604 0.0726539 -0.00128188 -0.0001681 -0.999999
-0.0915012 -0.191604 0.0726539 0.00128189 -0.0001681 -0.999999
-0.109554 -0.191604 0.0726539 -0.00128199 -0.000168105 -0.999999
-0.127608 -0.191604 0.0726539 0.00128196 -0.000168102 -0.999999
-0.14566 -0.191604 0.0726539 -0.00128191 -0.000168098 -0.999999
-0.163714 -0.191604 0.0726539 0.0169273 0.0112336 -0.999794
-0.181767 -0.191604 0.0726539 -0.024069 -0.0125884 -0.999631
-0.19982 -0.191604 0.0726539 -0.00503636 -0.0122232 -0.999913
-0.217874 -0.191604 0.0726539 0.0249188 -0.0130778 -0.999604
-0.235927 -0.191604 0.0726539 2.16346e-017 2.34739e-017 -1
-0.25398 -0.191604 0.0726539 0.00485669 6.0093e-009 -0.999988
-0.272033 -0.191604 0.0726539 0.0390145 -0.00165633 -0.999237
-0.290087 -0.191604 0.0719844 0.131204 -0.00681022 -0.991332
-0.307438 -0.191503 0.0694098 0.320092 -0.01602 -0.947251
-0.322867 -0.191402 0.0629913 0.574789 -0.0318746 -0.81768
0.305001 -0.209656 0.0693097 -0.324205 -0.0101633 -0.945932
0.287616 -0.209656 0.0719844 -0.131912 0.0034271 -0.991255
0.269563 -0.209656 0.0726539 -0.0406941 -0.0002465 -0.999172
0.25151 -0.209656 0.0726539 -0.00485634 -5.126e-009 -0.999988
0.233457 -0.209656 0.0726539 -0 0 -1
0.215403 -0.209656 0.0726539 0.0161779 -0.018738 -0.999694
0.197351 -0.209656 0.0726539 -0.0203834 -0.0120421 -0.99972
0.179297 -0.209656 0.0726539 -0.00947572 -0.0235452 -0.999678
0.161243 -0.209656 0.0726539 0.0281234 -0.0134118 -0.999514
0.143191 -0.209656 0.0726539 -0.00745291 -0.0162669 -0.99984
0.125137 -0.209656 0.0726539 0.0152334 -0.0179083 -0.999724
0.107084 -0.209656 0.0726539 -0.00745282 -0.0162669 -0.99984
0.0890306 -0.209656 0.0726539 0.0152336 -0.0179084 -0.999724
0.070978 -0.209656 0.0726539 -0.00745279 -0.0162669 -0.99984
0.0529243 -0.209656 0.0726539 0.0152335 -0.0179084 -0.999724
0.0348716 -0.209656 0.0726539 -0.00745289 -0.0162669 -0.99984
0.0168179 -0.209656 0.0726539 0.0152335 -0.0179084 -0.999724
-0.00123475 -0.209656 0.0726539 -0.00745281 -0.0162669 -0.99984
-0.0192885 -0.209656 0.0726539 0.0152335 -0.0179084 -0.999724
-0.0373411 -0.209656 0.0726539 -0.00745282 -0.0162669 -0.99984
-0.0553948 -0.209656 0.0726539 0.0152335 -0.0179084 -0.999724
-0.0734475 -0.209656 0.0726539 -0.00744653 -0.0162655 -0.99984
-0.0915012 -0.209656 0.0726539 0.0152335 -0.0179084 -0.999724
-0.109554 -0.209656 0.0726539 -0.00744672 -0.0162655 -0.99984
-0.127608 -0.209656 0.0726539 0.0152335 -0.0179084 -0.999724
-0.14566 -0.209656 0.0726539 -0.0074466 -0.0162655 -0.99984
-0.163714 -0.209656 0.0726539 0.0152335 -0.0179084 -0.999724
-0.181767 -0.209656 0.0726539 -0.0203123 -0.011969 -0.999722
-0.19982 -0.209656 0.0726539 -0.0094988 -0.0237112 -0.999674
-0.217874 -0.209656 0.0726539 0.0139643 -0.00314149 -0.999898
-0.235927 -0.209656 0.0726539 0 -0 -1
-0.25398 -0.209656 0.0726539 0.00425243 -4.48867e-009 -0.999991
-0.272033 -0.209656 0.0726539 0.031903 -0.00542072 -0.999476
-0.290087 -0.209656 0.0720677 0.117909 -0.0134137 -0.992934
-0.307571 -0.209456 0.0696776 0.299666 -0.0290533 -0.953602
-0.323067 -0.208854 0.0638105 0.546841 -0.0521614 -0.83561
0.305145 -0.227853 0.0693582 -0.306286 -0.0217163 -0.951692
0.287616 -0.22771 0.0719844 -0.129009 -0.00214931 -0.991641
0.269563 -0.22771 0.0726539 -0.0381381 0.000991412 -0.999272
0.25151 -0.22771 0.0726539 -0.00485634 5.75081e-009 -0.999988
0.233457 -0.22771 0.0726539 -5.05102e-018 2.24195e-018 -1
0.215403 -0.22771 0.0726539 -3.33926e-017 -7.90002e-021 -1
0.197351 -0.22771 0.0726539 -0.00120831 -0.00850151 -0.999963
0.179297 -0.22771 0.0726539 0.00947406 -0.0106637 -0.999898
0.161243 -0.22771 0.0726539 0.0451701 -0.0168112 -0.998838
0.143191 -0.22771 0.0726539 0.0152137 0.00209841 -0.999882
0.125137 -0.22771 0.0726539 0.0342138 0.0158221 -0.999289
0.107084 -0.22771 0.0726539 0.000264414 0.00635374 -0.99998
0.0890306 -0.22771 0.0726539 0.015729 0.000104658 -0.999876
0.070978 -0.22771 0.0726539 0.000264484 0.00635374 -0.99998
0.0529243 -0.22771 0.0726539 0.0342139 0.0158221 -0.999289
0.0348716 -0.22771 0.0726539 0.0152137 0.00209841 -0.999882
0.0168179 -0.22771 0.0726539 0.0342139 0.0158221 -0.999289
-0.00123475 -0.22771 0.0726539 0.000264446 0.00635374 -0.99998
-0.0192885 -0.22771 0.0726539 0.0342139 0.0158221 -0.999289
-0.0373411 -0.22771 0.0726539 0.0152137 0.00209841 -0.999882
-0.0553948 -0.22771 0.0726539 0.0157289 0.00010466 -0.999876
-0.0734475 -0.22771 0.0726539 0.000264535 0.00635373 -0.99998
-0.0915012 -0.22771 0.0726539 0.0342138 0.0158221 -0.999289
-0.109554 -0.22771 0.0726539 0.0152137 0.00209841 -0.999882
-0.127608 -0.22771 0.0726539 0.0157289 0.00010466 -0.999876
-0.14566 -0.22771 0.0726539 0.00026447 0.00635373 -0.99998
-0.163714 -0.22771 0.0726539 0.0342138 0.0158221 -0.999289
-0.181767 -0.22771 0.0726539 -0.00148503 -0.00854472 -0.999962
-0.19982 -0.22771 0.0726539 0.00972636 -0.0107516 -0.999895
-0.217874 -0.22771 0.0726539 3.29225e-017 -7.99663e-017 -1
-0.235927 -0.22771 0.0726539 0 -0 -1
-0.25398 -0.22771 0.0726539 0.00201813 -0.000299989 -0.999998
-0.272033 -0.22771 0.0726539 0.0278151 -0.00709257 -0.999588
-0.290087 -0.22771 0.0723186 0.107768 -0.0105399 -0.99412
-0.307772 -0.22761 0.0701626 0.26113 -0.0356702 -0.964644
-0.323978 -0.227008 0.0639191 0.533528 -0.0691611 -0.84295
0.305364 -0.246523 0.0697156 -0.272282 -0.0316759 -0.961696
0.287688 -0.245834 0.0720087 -0.105468 -0.0117734 -0.994353
0.269563 -0.245763 0.0726539 -0.03303 -0.00054746 -0.999454
0.25151 -0.245763 0.0726539 -0.00694699 0.0070128 -0.999951
0.233457 -0.245763 0.0726539 -0.000555146 0.00656507 -0.999978
0.215403 -0.245763 0.0726539 6.74056e-005 0.00538599 -0.999986
0.197351 -0.245763 0.0726539 0.00130774 0.00627651 -0.999979
0.179297 -0.245763 0.0726539 0.000434872 0.00564085 -0.999984
0.161243 -0.245763 0.0726539 -0.000555138 0.00656507 -0.999978
0.143191 -0.245763 0.0726539 -0.000555173 0.00656508 -0.999978
0.125137 -0.245763 0.0726539 6.73864e-005 0.00538602 -0.999986
0.107084 -0.245763 0.0726539 0.000434867 0.00564085 -0.999984
0.0890306 -0.245763 0.0726539 6.73869e-005 0.00538602 -0.999986
0.070978 -0.245763 0.0726539 0.000434867 0.00564085 -0.999984
0.0529243 -0.245763 0.0726539 6.73866e-005 0.00538602 -0.999986
0.0348716 -0.245763 0.0726539 -0.000555173 0.00656508 -0.999978
0.0168179 -0.245763 0.0726539 6.73867e-005 0.00538602 -0.999986
-0.00123475 -0.245763 0.0726539 0.000434881 0.00564085 -0.999984
-0.0192885 -0.245763 0.0726539 6.74056e-005 0.00538599 -0.999986
-0.0373411 -0.245763 0.0726539 0.000434881 0.00564085 -0.999984
-0.0553948 -0.245763 0.0726539 6.74056e-005 0.00538599 -0.999986
-0.0734475 -0.245763 0.0726539 0.000434881 0.00564085 -0.999984
-0.0915012 -0.245763 0.0726539 6.74055e-005 0.00538599 -0.999986
-0.109554 -0.245763 0.0726539 -0.000555146 0.00656507 -0.999978
-0.127608 -0.245763 0.0726539 6.74057e-005 0.00538599 -0.999986
-0.14566 -0.245763 0.0726539 0.000434881 0.00564085 -0.999984
-0.163714 -0.245763 0.0726539 6.74055e-005 0.00538599 -0.999986
-0.181767 -0.245763 0.0726539 0.00130775 0.00627651 -0.999979
-0.19982 -0.245763 0.0726539 0.000434872 0.00564085 -0.999984
-0.217874 -0.245763 0.0726539 -0.000555138 0.00656507 -0.999978
-0.235927 -0.245763 0.0726539 0.000441352 0.00564523 -0.999984
-0.25398 -0.245763 0.0726539 0.000924314 0.00643774 -0.999979
-0.272033 -0.245763 0.0726539 0.021611 0.00114265 -0.999766
-0.289986 -0.245662 0.0725696 0.0925279 -0.0124483 -0.995632
-0.307354 -0.245562 0.0709818 0.249283 -0.025385 -0.968098
-0.324212 -0.245662 0.0654236 0.483936 -0.0558423 -0.87332
0.330495 -0.265263 0.0618295 -0.577592 -0.00398672 -0.816316
0.317479 -0.268699 0.0687267 -0.36943 0.0308996 -0.928745
0.30481 -0.265191 0.0708236 -0.216528 0.0213641 -0.976043
0.287659 -0.26406 0.0721995 -0.0876318 0.0266721 -0.995796
0.269563 -0.263816 0.0726539 -0.0245836 0.0277916 -0.999311
0.25151 -0.263816 0.0726539 -0.00651273 0.0387247 -0.999229
0.233457 -0.263816 0.0726539 -0.00147837 0.0387237 -0.999249
0.215403 -0.263816 0.0726539 -0.00147829 0.0387237 -0.999249
0.197351 -0.263816 0.0726539 -0.00147839 0.0387238 -0.999249
0.179297 -0.263816 0.0726539 -0.00147828 0.0387237 -0.999249
0.161243 -0.263816 0.0726539 -0.00147823 0.0387237 -0.999249
0.143191 -0.263816 0.0726539 -0.00147827 0.0387237 -0.999249
0.125137 -0.263816 0.0726539 -0.00147826 0.0387237 -0.999249
0.107084 -0.263816 0.0726539 -0.00147827 0.0387237 -0.999249
0.0890306 -0.263816 0.0726539 -0.00147826 0.0387237 -0.999249
0.070978 -0.263816 0.0726539 -0.00147827 0.0387237 -0.999249
0.0529243 -0.263816 0.0726539 -0.00147826 0.0387237 -0.999249
0.0348716 -0.263816 0.0726539 -0.00147827 0.0387237 -0.999249
0.0168179 -0.263816 0.0726539 -0.0014783 0.0387237 -0.999249
-0.00123475 -0.263816 0.0726539 -0.00147832 0.0387237 -0.999249
-0.0192885 -0.263816 0.0726539 -0.00147838 0.0387237 -0.999249
-0.0373411 -0.263816 0.0726539 -0.00147845 0.0387238 -0.999249
-0.0553948 -0.263816 0.0726539 -0.00147838 0.0387237 -0.999249
-0.0734475 -0.263816 0.0726539 -0.00147845 0.0387238 -0.999249
-0.0915012 -0.263816 0.0726539 -0.00147829 0.0387237 -0.999249
-0.109554 -0.263816 0.0726539 -0.00147837 0.0387237 -0.999249
-0.127608 -0.263816 0.0726539 -0.00147829 0.0387237 -0.999249
-0.14566 -0.263816 0.0726539 -0.00147837 0.0387237 -0.999249
-0.163714 -0.263816 0.0726539 -0.00147829 0.0387237 -0.999249
-0.181767 -0.263816 0.0726539 -0.00147839 0.0387238 -0.999249
-0.19982 -0.263816 0.0726539 -0.00147828 0.0387237 -0.999249
-0.217874 -0.263816 0.0726539 -0.00147823 0.0387237 -0.999249
-0.235927 -0.263816 0.0726539 -0.0011609 0.03881 -0.999246
-0.25398 -0.263816 0.0726539 0.00137014 0.0397013 -0.999211
-0.271933 -0.263716 0.0726539 0.0159764 0.0418014 -0.998998
-0.289613 -0.263343 0.0725105 0.0670286 0.0394405 -0.996971
-0.306361 -0.262756 0.0715522 0.200979 0.0377159 -0.978869
-0.322303 -0.263028 0.0680245 0.405925 0.0205891 -0.913674
-0.336518 -0.264389 0.0590114 0.648515 0.0102596 -0.761133
0.32066 -0.282529 0.06683 -0.418258 0.158542 -0.894385
0.304908 -0.282729 0.0706834 -0.21933 0.150398 -0.963989
0.288156 -0.282142 0.071841 -0.079089 0.136533 -0.987473
0.270232 -0.281869 0.0719844 -0.0227337 0.134281 -0.990682
0.252178 -0.281869 0.0719844 -0.00525593 0.134285 -0.990929
0.234126 -0.281869 0.0719844 -0.00292167 0.134703 -0.990882
0.216072 -0.281869 0.0719844 -0.00292166 0.134703 -0.990882
0.198019 -0.281869 0.0719844 -0.00292169 0.134703 -0.990882
0.179965 -0.281869 0.0719844 -0.00292165 0.134703 -0.990882
0.161913 -0.281869 0.0719844 -0.00292165 0.134703 -0.990882
0.143859 -0.281869 0.0719844 -0.00292143 0.134703 -0.990882
0.125806 -0.281869 0.0719844 -0.00292144 0.134703 -0.990882
0.107753 -0.281869 0.0719844 -0.00292143 0.134703 -0.990882
0.0897001 -0.281869 0.0719844 -0.00292144 0.134703 -0.990882
0.0716464 -0.281869 0.0719844 -0.00292144 0.134703 -0.990882
0.0535937 -0.281869 0.0719844 -0.00292144 0.134703 -0.990882
0.03554 -0.281869 0.0719844 -0.00292143 0.134703 -0.990882
0.0174874 -0.281869 0.0719844 -0.00292146 0.134703 -0.990882
-0.00056633 -0.281869 0.0719844 -0.00292143 0.134703 -0.990882
-0.01862 -0.281869 0.0719844 -0.00292121 0.134703 -0.990882
-0.0366727 -0.281869 0.0719844 -0.00292145 0.134703 -0.990882
-0.0547264 -0.281869 0.0719844 -0.00292132 0.134703 -0.990882
-0.072779 -0.281869 0.0719844 -0.00292153 0.134703 -0.990882
-0.0908328 -0.281869 0.0719844 -0.00292141 0.134703 -0.990882
-0.108885 -0.281869 0.0719844 -0.00292167 0.134703 -0.990882
-0.126939 -0.281869 0.0719844 -0.00292167 0.134703 -0.990882
-0.144992 -0.281869 0.0719844 -0.00292167 0.134703 -0.990882
-0.163045 -0.281869 0.0719844 -0.00292166 0.134703 -0.990882
-0.181098 -0.281869 0.0719844 -0.00292169 0.134703 -0.990882
-0.199152 -0.281869 0.0719844 -0.00292165 0.134703 -0.990882
-0.217204 -0.281869 0.0719844 -0.00292165 0.134703 -0.990882
-0.235258 -0.281869 0.0719844 -0.0019542 0.134967 -0.990848
-0.253311 -0.281869 0.0719844 0.00332912 0.136472 -0.990638
-0.271259 -0.281597 0.071937 0.0206799 0.140296 -0.989894
-0.288701 -0.280651 0.0716977 0.0770573 0.148758 -0.985867
-0.305298 -0.279605 0.0706634 0.204489 0.151268 -0.96711
-0.318362 -0.276848 0.0687783 0.342637 0.117983 -0.93203
0.307224 -0.298681 0.067083 -0.262129 0.365448 -0.893161
0.290153 -0.299107 0.0690039 -0.114424 0.35912 -0.92625
0.272237 -0.299254 0.0693097 -0.03618 0.341555 -0.939165
0.254185 -0.299254 0.0693097 -0.00656994 0.331715 -0.943357
0.236131 -0.299254 0.0693097 -0.00871469 0.332924 -0.942913
0.218078 -0.299254 0.0693097 -0.00847153 0.332655 -0.943011
0.200024 -0.299254 0.0693097 -0.00847159 0.332655 -0.943011
0.181972 -0.299254 0.0693097 -0.0084716 0.332655 -0.943011
0.163918 -0.299254 0.0693097 -0.00847156 0.332655 -0.943011
0.145865 -0.299254 0.0693097 -0.00847169 0.332655 -0.943011
0.127812 -0.299254 0.0693097 -0.00847168 0.332655 -0.943011
0.109759 -0.299254 0.0693097 -0.00847184 0.332655 -0.943011
0.0917054 -0.299254 0.0693097 -0.00847168 0.332655 -0.943011
0.0736527 -0.299254 0.0693097 -0.00847184 0.332655 -0.943011
0.055599 -0.299254 0.0693097 -0.00847168 0.332655 -0.943011
0.0375463 -0.299254 0.0693097 -0.00847184 0.332655 -0.943011
0.0194926 -0.299254 0.0693097 -0.00847168 0.332655 -0.943011
0.00143999 -0.299254 0.0693097 -0.00847167 0.332655 -0.943011
-0.0166137 -0.299254 0.0693097 -0.00847156 0.332655 -0.943011
-0.0346664 -0.299254 0.0693097 -0.00847159 0.332655 -0.943011
-0.0527201 -0.299254 0.0693097 -0.00847152 0.332655 -0.943011
-0.0707727 -0.299254 0.0693097 -0.00847151 0.332655 -0.943011
-0.0888264 -0.299254 0.0693097 -0.00847148 0.332655 -0.943011
-0.10688 -0.299254 0.0693097 -0.00847151 0.332655 -0.943011
-0.124933 -0.299254 0.0693097 -0.00847153 0.332655 -0.943011
-0.142987 -0.299254 0.0693097 -0.00847158 0.332655 -0.943011
-0.161039 -0.299254 0.0693097 -0.00847153 0.332655 -0.943011
-0.179093 -0.299254 0.0693097 -0.00847159 0.332655 -0.943011
-0.197146 -0.299254 0.0693097 -0.0084716 0.332655 -0.943011
-0.215199 -0.299254 0.0693097 -0.00847156 0.332655 -0.943011
-0.233252 -0.299254 0.0693097 -0.00727912 0.332807 -0.942967
-0.251306 -0.299254 0.0693097 0.00582279 0.331833 -0.94332
-0.269449 -0.299011 0.0692148 0.0331924 0.334827 -0.941695
-0.287541 -0.297751 0.0688627 0.0908702 0.327369 -0.940517
-0.302106 -0.293866 0.0686286 0.178991 0.289281 -0.940361
0.302385 0.322329 0.0756513 0.607659 0.789679 0.0846048
0.287363 0.329956 0.071257 0.335198 0.923 0.18898
0.268887 0.335047 0.0666202 0.0910397 0.939719 0.329605
0.274792 0.339823 0.0492602 0.270531 0.940966 0.203458
0.250225 0.335899 0.0658411 -0.0848945 0.877764 0.471511
0.259567 0.341835 0.0519191 0.0781148 0.951684 0.296978
0.241724 0.341416 0.0526118 -0.042863 0.911187 0.409758
0.223032 0.340224 0.0522997 -0.0695771 0.86765 0.492283
0.204228 0.339965 0.0514468 -0.0389119 0.834307 0.549925
0.185983 0.339965 0.051256 -0.00905395 0.81683 0.576807
0.167931 0.339965 0.051256 0.000461753 0.813176 0.582018
0.149877 0.339965 0.051256 0.0026032 0.812094 0.583521
0.131823 0.339965 0.051256 0.00270221 0.812403 0.58309
0.113771 0.339965 0.051256 0.00283981 0.81253 0.582912
0.0957169 0.339965 0.051256 0.00283985 0.81253 0.582912
0.0776643 0.339965 0.051256 0.00283981 0.81253 0.582912
0.0596106 0.339965 0.051256 0.00283985 0.81253 0.582912
0.0415579 0.339965 0.051256 0.00283981 0.81253 0.582912
0.0235042 0.339965 0.051256 0.0028398 0.81253 0.582912
0.00545157 0.339965 0.051256 0.0028398 0.81253 0.582912
-0.0126021 0.339965 0.051256 0.00283981 0.81253 0.582912
-0.0306548 0.339965 0.051256 0.00283983 0.81253 0.582912
-0.0487085 0.339965 0.051256 0.00283981 0.81253 0.582912
-0.0667611 0.339965 0.051256 0.00283983 0.81253 0.582912
-0.0848149 0.339965 0.051256 0.00283976 0.81253 0.582912
-0.102868 0.339965 0.051256 0.00283979 0.81253 0.582912
-0.120921 0.339965 0.051256 0.00283974 0.81253 0.582912
-0.138974 0.339965 0.051256 0.00283978 0.81253 0.582912
-0.157028 0.339965 0.051256 0.00446172 0.812908 0.582375
-0.17508 0.339965 0.051256 0.0121326 0.816016 0.577901
-0.193034 0.340065 0.051256 0.0317994 0.827284 0.560883
-0.210915 0.340165 0.0517578 0.0626491 0.844233 0.532302
-0.229163 0.340232 0.0531906 0.0769955 0.874846 0.478243
-0.262151 0.334965 0.0722975 0.136612 0.921809 0.362774
-0.248112 0.340935 0.0537336 0.0726713 0.924266 0.374769
-0.280878 0.335332 0.0735153 -0.0397717 0.975731 0.21533
-0.269212 0.341146 0.0517367 -0.0829723 0.970236 0.227503
-0.296564 0.333 0.0776723 -0.195639 0.971439 0.13428
-0.309641 0.329874 0.0742469 -0.386919 0.919715 0.0664733
0.313694 0.310544 0.0826813 0.822429 0.56798 0.031786
-0.323753 0.322475 0.0705263 -0.634868 0.771867 0.0341059
-0.334346 0.310688 0.0628943 0.831627 -0.555134 -0.0149126
0.320046 0.295266 0.075393 -0.961931 -0.270978 -0.0354877
-0.340904 0.295165 0.0693086 0.963122 -0.268545 -0.0167492
0.321792 0.27874 0.0707267 -0.997794 -0.020031 -0.0632902
-0.34259 0.277737 0.0727277 0.998333 0.0202073 -0.0540577
0.321373 0.264907 0.0660878 -0.985075 0.121589 -0.121832
-0.339668 0.260081 0.0752464 0.945283 0.29568 -0.137892
0.316346 0.24697 0.0683303 -0.923012 0.281511 -0.262297
-0.332317 0.245308 0.0774973 0.833586 0.475841 -0.280552
0.303156 0.226801 0.0754657 -0.678359 0.432334 -0.594068
-0.324328 0.226481 0.0676566 0.777547 0.450635 -0.438576
0.301965 0.207243 0.0663208 -0.655723 0.237053 -0.716821
-0.323608 0.206165 0.0512085 0.877774 0.274189 -0.392853
0.302232 0.187801 0.0633034 -0.622467 0.102636 -0.775887
-0.318838 0.187657 0.0515543 0.834321 0.171069 -0.524064
0.302327 0.169461 0.0626234 -0.595526 0.0275795 -0.802862
-0.31675 0.169461 0.0513393 0.815868 0.0804357 -0.572616
0.302327 0.151407 0.0626234 -0.594759 0.00446385 -0.803892
-0.316165 0.151407 0.051256 0.810737 0.0253652 -0.58486
0.302327 0.133355 0.0626234 -0.592869 1.28934e-007 -0.805299
-0.316165 0.133355 0.051256 0.80997 0.00452229 -0.586454
0.302327 0.115301 0.0626234 -0.592869 -1.28934e-007 -0.805299
-0.316165 0.115301 0.051256 0.810006 -8.97366e-008 -0.586421
0.302327 0.0972484 0.0626234 -0.592869 1.28934e-007 -0.805299
-0.316165 0.0972484 0.051256 0.810006 8.97366e-008 -0.586421
0.302327 0.0791947 0.0626234 -0.590635 0.00366795 -0.80693
-0.316165 0.0791947 0.051256 0.810006 -9.0538e-008 -0.586421
0.302327 0.061142 0.0626234 -0.58427 -0.0100441 -0.811497
-0.316165 0.061142 0.051256 0.810006 8.87039e-008 -0.586421
0.302398 0.0430166 0.0626476 -0.573855 -0.0278718 -0.818483
-0.316165 0.0430883 0.051256 0.809786 -0.00395455 -0.586712
0.303101 0.024305 0.0627899 -0.531129 -0.0889159 -0.842613
-0.316165 0.0250357 0.051256 0.809435 -0.0204306 -0.586854
0.305154 0.00306421 0.0639655 -0.484175 -0.119749 -0.866738
-0.316465 0.00708212 0.051858 0.798943 -0.0497202 -0.599348
-0.316799 -0.0102684 0.053529 0.767901 -0.0847659 -0.634935
0.329139 -0.0293247 0.0516239 -0.793714 -0.112633 -0.597773
0.317275 -0.0294966 0.0627478 -0.564947 -0.0921331 -0.819967
-0.316346 -0.0250063 0.0564241 0.71014 -0.111465 -0.695181
0.319544 -0.047177 0.0626234 -0.58792 -0.04317 -0.807766
-0.322716 -0.0469409 0.052655 0.788118 -0.155896 -0.595454
0.320129 -0.0652308 0.0626234 -0.590514 -0.0182115 -0.806822
0.32038 -0.0832845 0.0626234 -0.592666 -0.0046601 -0.805435
-0.335443 -0.084654 0.0455175 0.881143 -0.109926 -0.459894
0.32038 -0.101337 0.0626234 -0.592784 -0.00094404 -0.805361
-0.334489 -0.101137 0.0498042 0.831561 -0.0513181 -0.553058
0.32038 -0.119391 0.0626234 -0.592882 -1.27695e-007 -0.805289
-0.334217 -0.119247 0.0509935 0.814016 -0.0204401 -0.580483
0.32038 -0.137443 0.0626234 -0.592882 1.35042e-007 -0.805289
-0.334217 -0.137443 0.051256 0.811103 -0.00751509 -0.584854
0.32038 -0.155497 0.0626234 -0.592882 -1.36345e-007 -0.805289
-0.334217 -0.155497 0.051256 0.809678 -0.00522044 -0.586852
0.32038 -0.17355 0.0626234 -0.590644 0.00366669 -0.806924
-0.334217 -0.17355 0.051256 0.808161 -0.0223363 -0.588538
0.32038 -0.191604 0.0626234 -0.584275 -0.0100472 -0.811494
-0.334519 -0.191503 0.051858 0.795107 -0.0518515 -0.604249
0.320452 -0.209728 0.0626476 -0.574454 -0.0265934 -0.818105
-0.334853 -0.208854 0.053529 0.762063 -0.0765446 -0.642963
0.321154 -0.228441 0.0627899 -0.535412 -0.077931 -0.840988
-0.334408 -0.223617 0.0561342 0.711892 -0.0926017 -0.696157
0.322993 -0.24968 0.0638938 -0.494371 -0.0698865 -0.866437
-0.340861 -0.245763 0.0512771 0.775773 -0.097002 -0.623511
0.334535 -0.281238 0.0577694 -0.645676 0.14373 -0.749963
-0.331385 -0.280977 0.0618516 0.535875 0.149912 -0.830882
0.323341 -0.298226 0.0602871 -0.472547 0.388448 -0.79108
-0.319428 -0.294754 0.063374 0.355863 0.320409 -0.877895
-0.336995 -0.30039 0.0512634 0.620245 0.391558 -0.67969
0.310629 -0.310933 0.0594795 -0.316592 0.571291 -0.757229
0.294704 -0.313656 0.0614394 -0.159501 0.598948 -0.784742
0.276374 -0.314437 0.0624462 -0.058425 0.600729 -0.797315
0.258196 -0.314633 0.0626234 -0.0152857 0.594157 -0.804204
0.240143 -0.314633 0.0626234 -0.0059853 0.590892 -0.806728
0.22209 -0.314633 0.0626234 -0.00415701 0.590511 -0.807019
0.204037 -0.314633 0.0626234 -0.00415705 0.590511 -0.807019
0.185983 -0.314633 0.0626234 -0.00415703 0.590511 -0.807019
0.167931 -0.314633 0.0626234 -0.00415706 0.590511 -0.807019
0.149877 -0.314633 0.0626234 -0.00415709 0.590511 -0.807019
0.131823 -0.314633 0.0626234 -0.00415716 0.590511 -0.807019
0.113771 -0.314633 0.0626234 -0.00415711 0.590511 -0.807019
0.0957169 -0.314633 0.0626234 -0.0041572 0.590511 -0.807019
0.0776643 -0.314633 0.0626234 -0.00415711 0.590511 -0.807019
0.0596106 -0.314633 0.0626234 -0.0041572 0.590511 -0.807019
0.0415579 -0.314633 0.0626234 -0.00415711 0.590511 -0.807019
0.0235042 -0.314633 0.0626234 -0.00415713 0.590511 -0.807019
0.00545157 -0.314633 0.0626234 -0.00415709 0.590511 -0.807019
-0.0126021 -0.314633 0.0626234 -0.00415714 0.590511 -0.807019
-0.0306548 -0.314633 0.0626234 -0.00415714 0.590511 -0.807019
-0.0487085 -0.314633 0.0626234 -0.00415714 0.590511 -0.807019
-0.0667611 -0.314633 0.0626234 -0.00415714 0.590511 -0.807019
-0.0848149 -0.314633 0.0626234 -0.00415705 0.590511 -0.807019
-0.102868 -0.314633 0.0626234 -0.00415707 0.590511 -0.807019
-0.120921 -0.314633 0.0626234 -0.00415701 0.590511 -0.807019
-0.138974 -0.314633 0.0626234 -0.00415704 0.590511 -0.807019
-0.157028 -0.314633 0.0626234 -0.00415701 0.590511 -0.807019
-0.17508 -0.314633 0.0626234 -0.00415704 0.590511 -0.807019
-0.193134 -0.314633 0.0626234 -0.00415703 0.590511 -0.807019
-0.211187 -0.314633 0.0626234 -0.00415706 0.590511 -0.807019
-0.22924 -0.314633 0.0626234 -0.0037797 0.590516 -0.807017
-0.247294 -0.314633 0.0626234 0.00179915 0.590803 -0.806814
-0.265443 -0.314562 0.0625749 0.0256686 0.591172 -0.806137
-0.283997 -0.313798 0.0621226 0.0802261 0.579128 -0.811279
-0.30481 -0.310592 0.0604578 0.21505 0.545675 -0.809933
0.302385 0.323668 0.0575976 0.645669 0.757838 0.0937726
0.287647 0.333674 0.0535122 0.432454 0.887789 0.157522
0.28765 0.336619 0.0361111 0.475607 0.873634 0.102774
-0.293504 0.336103 0.05883 -0.241295 0.961587 0.130873
-0.282273 0.342114 0.0365539 -0.22169 0.971235 0.0869205
-0.311493 0.330209 0.0594752 -0.463307 0.883677 0.0667944
0.313694 0.310879 0.0646276 0.839055 0.542366 0.0427294
-0.323054 0.323386 0.0527784 -0.634753 0.772247 0.0268812
-0.334174 0.310998 0.0448121 0.837389 -0.546542 -0.0084394
0.320297 0.295449 0.0575744 -0.957662 -0.286101 -0.0320838
-0.340904 0.295165 0.0512549 0.959815 -0.280583 -0.00533103
0.322556 0.278841 0.053839 -0.996244 -0.0709454 -0.0496436
-0.34291 0.27778 0.0545981 0.99938 -0.0250101 -0.0247793
0.322116 0.262052 0.0523577 -0.994051 0.0590679 -0.0915027
-0.341196 0.259927 0.0572349 0.977449 0.194779 -0.0815787
0.320838 0.247426 0.0500994 -0.973724 0.139475 -0.180025
-0.33531 0.242744 0.0611811 0.907728 0.358329 -0.218244
0.315332 0.228151 0.0557251 -0.89879 0.191469 -0.394355
-0.330762 0.224318 0.0479655 0.914609 0.319659 -0.247607
0.313882 0.206359 0.0523387 -0.856984 0.104434 -0.50465
0.313718 0.187585 0.0513277 -0.825543 0.039057 -0.562987
0.313694 0.169461 0.051256 -0.816614 0.0119715 -0.577059
0.313694 0.151407 0.051256 -0.811548 -0.00248116 -0.58428
0.313694 0.133355 0.051256 -0.810003 8.96082e-008 -0.586426
0.313694 0.115301 0.051256 -0.810003 -8.96082e-008 -0.586426
0.313694 0.0972484 0.051256 -0.810003 8.96082e-008 -0.586426
0.313694 0.0791947 0.051256 -0.808401 -0.00461025 -0.588614
0.313694 0.061142 0.051256 -0.80866 -0.0208228 -0.587908
0.314291 0.0428016 0.05116 -0.791279 -0.0697891 -0.607459
0.316106 0.0236166 0.0511084 -0.762442 -0.140249 -0.631675
0.329077 0.00201308 0.0406835 -0.889097 -0.204843 -0.409324
0.320748 0.00484702 0.0518959 -0.75979 -0.179035 -0.625032
0.326188 -0.0122747 0.0523166 -0.765383 -0.167983 -0.621266
0.331163 -0.047177 0.051256 -0.80996 -0.0548435 -0.583915
-0.332681 -0.047973 0.0312529 0.957551 -0.19827 -0.209251
0.331663 -0.0652308 0.051256 -0.811056 -0.0225155 -0.584535
-0.328865 -0.0685813 0.053121 0.779691 -0.141489 -0.60997
-0.335977 -0.069236 0.036498 0.938491 -0.159166 -0.306432
0.331748 -0.0832845 0.051256 -0.811149 -0.00747563 -0.584792
0.331748 -0.101337 0.051256 -0.809991 -0.000819502 -0.586442
0.331748 -0.119391 0.051256 -0.810006 -8.87646e-008 -0.586422
0.331748 -0.137443 0.051256 -0.810006 9.40355e-008 -0.586422
0.331748 -0.155497 0.051256 -0.810006 -9.50066e-008 -0.586422
0.331748 -0.17355 0.051256 -0.808406 -0.00460865 -0.588608
0.331748 -0.191604 0.051256 -0.808755 -0.0204473 -0.58779
0.332345 -0.209943 0.05116 -0.79121 -0.066136 -0.607958
0.334076 -0.229128 0.0511084 -0.759194 -0.125105 -0.638728
0.346408 -0.250491 0.040343 -0.876902 -0.143448 -0.458765
0.338217 -0.247797 0.0516281 -0.756397 -0.121785 -0.642676
-0.350892 -0.245763 0.030653 0.935956 -0.152742 -0.317263
0.342737 -0.264217 0.0508248 -0.785711 -0.0333602 -0.617694
-0.347581 -0.267994 0.0472476 0.822641 0.000408776 -0.56856
-0.353148 -0.264518 0.0339962 0.923479 -0.0501471 -0.380358
0.345071 -0.277777 0.0467352 -0.824293 0.0971766 -0.557762
-0.344743 -0.282768 0.050168 0.752236 0.14491 -0.642761
-0.353264 -0.282614 0.0352972 0.902629 0.106438 -0.417051
0.338909 -0.29761 0.046654 -0.715193 0.38701 -0.581999
0.334435 -0.309543 0.0454437 -0.629435 0.546139 -0.552761
0.324469 -0.313293 0.0488722 -0.487453 0.629777 -0.60479
-0.326436 -0.313005 0.0506972 0.450042 0.595648 -0.665331
-0.335826 -0.310317 0.0476809 0.588499 0.521019 -0.61823
0.302506 -0.323782 0.0471685 -0.231489 0.803332 -0.548698
0.281527 -0.3255 0.050421 -0.0813738 0.812055 -0.57788
0.262972 -0.325952 0.0511843 -0.0250105 0.808444 -0.588042
0.244823 -0.326001 0.051256 -0.00153808 0.810746 -0.585396
0.226771 -0.326001 0.051256 0.00283288 0.812095 -0.583519
0.208717 -0.326001 0.051256 0.00261164 0.812542 -0.582897
0.190664 -0.326001 0.051256 0.00271178 0.812565 -0.582864
0.172611 -0.326001 0.051256 0.00283979 0.81253 -0.582912
0.154557 -0.326001 0.051256 0.00283978 0.81253 -0.582912
0.136504 -0.326001 0.051256 0.00283975 0.81253 -0.582912
0.118451 -0.326001 0.051256 0.00283977 0.81253 -0.582912
0.100398 -0.326001 0.051256 0.00283972 0.81253 -0.582912
0.0823443 -0.326001 0.051256 0.00283977 0.81253 -0.582912
0.0642916 -0.326001 0.051256 0.00283972 0.81253 -0.582912
0.0462379 -0.326001 0.051256 0.00283978 0.81253 -0.582912
0.0281853 -0.326001 0.051256 0.00283975 0.81253 -0.582912
0.0101316 -0.326001 0.051256 0.00283982 0.81253 -0.582912
-0.00792108 -0.326001 0.051256 0.0028398 0.81253 -0.582912
-0.0259748 -0.326001 0.051256 0.00283982 0.81253 -0.582912
-0.0440274 -0.326001 0.051256 0.0028398 0.81253 -0.582912
-0.0620811 -0.326001 0.051256 0.00283979 0.81253 -0.582912
-0.0801338 -0.326001 0.051256 0.00283978 0.81253 -0.582912
-0.0981875 -0.326001 0.051256 0.0028398 0.81253 -0.582912
-0.11624 -0.326001 0.051256 0.00283984 0.81253 -0.582912
-0.134294 -0.326001 0.051256 0.0028398 0.81253 -0.582912
-0.152347 -0.326001 0.051256 0.00270223 0.812403 -0.58309
-0.1704 -0.326001 0.051256 0.0026032 0.812094 -0.583521
-0.188453 -0.326001 0.051256 0.00301925 0.811776 -0.583961
-0.206507 -0.326001 0.051256 0.0033352 0.811519 -0.584317
-0.22456 -0.326001 0.051256 0.00276009 0.810963 -0.585091
-0.242613 -0.326001 0.051256 0.00396459 0.809479 -0.587136
-0.260667 -0.326001 0.051256 0.0142764 0.804933 -0.593194
-0.278844 -0.325823 0.0510599 0.0559143 0.79692 -0.601491
-0.297174 -0.324817 0.0502787 0.150705 0.784762 -0.601196
-0.313225 -0.322996 0.0477157 0.285287 0.755065 -0.590329
0.271306 0.343757 0.0355143 0.264306 0.956084 0.126673
0.254007 0.346377 0.0362017 0.106778 0.979676 0.169803
0.236289 0.346852 0.0362355 0.0149849 0.973872 0.226603
0.218174 0.346651 0.0359719 -0.0156707 0.96608 0.257768
0.200024 0.346651 0.035877 -0.00474321 0.958627 0.284626
0.181972 0.346651 0.035877 0.00180761 0.956009 0.29333
0.163918 0.346651 0.035877 0.00173733 0.956161 0.292835
0.145865 0.346651 0.035877 0.000979164 0.957078 0.289827
0.127812 0.346651 0.035877 0.00110743 0.957917 0.287042
0.109759 0.346651 0.035877 0.00167279 0.958259 0.285897
0.0917054 0.346651 0.035877 0.00192623 0.958288 0.285799
0.0736527 0.346651 0.035877 0.00192635 0.958288 0.285799
0.055599 0.346651 0.035877 0.00192623 0.958288 0.285799
0.0375463 0.346651 0.035877 0.00192635 0.958288 0.285799
0.0194926 0.346651 0.035877 0.00192624 0.958288 0.285799
0.00143999 0.346651 0.035877 0.00192634 0.958288 0.285799
-0.0166137 0.346651 0.035877 0.00192622 0.958288 0.285799
-0.0346664 0.346651 0.035877 0.00192631 0.958288 0.285799
-0.0527201 0.346651 0.035877 0.00192621 0.958288 0.285799
-0.0707727 0.346651 0.035877 0.00192632 0.958288 0.285799
-0.0888264 0.346651 0.035877 0.00192619 0.958288 0.285799
-0.10688 0.346651 0.035877 0.00192614 0.958288 0.285799
-0.124933 0.346651 0.035877 0.00192617 0.958288 0.285799
-0.142987 0.346651 0.035877 0.00192618 0.958288 0.285799
-0.161039 0.346651 0.035877 0.00223249 0.958273 0.285845
-0.179093 0.346651 0.035877 0.00616397 0.959684 0.281014
-0.197146 0.346651 0.035877 0.0138507 0.961267 0.275269
-0.215247 0.346651 0.0360436 0.0163192 0.967182 0.25356
-0.233438 0.346723 0.0361343 0.00465573 0.973578 0.228309
-0.251342 0.346746 0.0352318 -0.0497523 0.983716 0.172708
-0.265619 0.34633 0.0319076 -0.122261 0.986771 0.10647
0.302385 0.325665 0.0395449 0.679213 0.730543 0.0705451
-0.304604 0.334285 0.0400373 -0.425135 0.903964 0.0459366
0.313694 0.31163 0.0465749 0.851958 0.522224 0.0380818
-0.322382 0.324005 0.0340225 -0.653691 0.756688 0.0106069
-0.334146 0.311105 0.0265876 0.843821 -0.536617 0.00288506
0.320381 0.2956 0.0397884 -0.958928 -0.282941 -0.0200245
-0.340904 0.295165 0.0332023 0.958372 -0.285518 0.00175954
0.322913 0.278254 0.0367415 -0.994355 -0.102578 -0.0271223
-0.34291 0.27778 0.0365454 0.999023 -0.0437313 -0.00635663
0.323094 0.260945 0.035643 -0.997862 0.0254778 -0.0601876
0.219916 0.253608 0.0184907 -0.517514 -0.360083 -0.776221
0.206042 0.256885 0.0235059 -0.33364 -0.406489 -0.850559
0.188591 0.258539 0.0258792 -0.150071 -0.431178 -0.889699
0.170604 0.259058 0.0265138 -0.0471997 -0.441681 -0.89593
0.152552 0.259058 0.0265138 -0.00704731 -0.444546 -0.895728
0.134498 0.259058 0.0265138 0.000989014 -0.444568 -0.895745
0.116445 0.259058 0.0265138 0.000988978 -0.444568 -0.895745
0.0983917 0.259058 0.0265138 0.000988977 -0.444568 -0.895745
0.080339 0.259058 0.0265138 0.000988953 -0.444568 -0.895745
0.0622853 0.259058 0.0265138 0.000988972 -0.444568 -0.895745
0.0442327 0.259058 0.0265138 0.000988954 -0.444568 -0.895745
0.026179 0.259058 0.0265138 0.000988957 -0.444568 -0.895745
0.00812631 0.259058 0.0265138 0.000988932 -0.444568 -0.895745
-0.00992739 0.259058 0.0265138 0.000988939 -0.444568 -0.895745
-0.02798 0.259058 0.0265138 0.000988974 -0.444568 -0.895745
-0.0460338 0.259058 0.0265138 0.000988938 -0.444568 -0.895745
-0.0640864 0.259058 0.0265138 0.000988974 -0.444568 -0.895745
-0.0821401 0.259058 0.0265138 0.000988939 -0.444568 -0.895745
-0.100193 0.259058 0.0265138 0.000988966 -0.444568 -0.895745
-0.118246 0.259058 0.0265138 0.000988926 -0.444568 -0.895745
-0.1363 0.259058 0.0265138 0.00184568 -0.445092 -0.895483
-0.154353 0.259058 0.0265138 0.011216 -0.446012 -0.894957
-0.172407 0.259058 0.0264306 0.0512787 -0.446207 -0.89346
-0.190459 0.259058 0.0253446 0.153282 -0.442221 -0.883711
-0.208312 0.25849 0.0216673 0.331527 -0.425194 -0.842199
-0.341573 0.259726 0.0392202 0.988489 0.146264 -0.0386945
0.321944 0.243196 0.0361258 -0.991325 0.0683428 -0.112265
0.217242 0.240504 0.0235059 -0.484294 -0.223704 -0.845822
0.20056 0.241306 0.0299245 -0.280771 -0.238757 -0.929604
0.18264 0.241674 0.0325317 -0.180859 -0.33745 -0.923806
0.164588 0.241674 0.0332002 -0.0570849 -0.309136 -0.949303
0.146534 0.241674 0.0332002 -0.0223909 -0.313611 -0.949288
0.128481 0.241674 0.0332002 -0.0159693 -0.314715 -0.949052
0.110427 0.241674 0.0332002 -0.0159605 -0.314716 -0.949052
0.0923738 0.241674 0.0332002 -0.0159556 -0.314716 -0.949052
0.0743211 0.241674 0.0332002 -0.0159606 -0.314716 -0.949052
0.0562674 0.241674 0.0332002 -0.0159581 -0.314716 -0.949052
0.0382148 0.241674 0.0332002 -0.0159606 -0.314716 -0.949052
0.0201611 0.241674 0.0332002 -0.0159581 -0.314716 -0.949052
0.00210841 0.241674 0.0332002 -0.0159605 -0.314716 -0.949052
-0.0159453 0.241674 0.0332002 -0.0159572 -0.314716 -0.949052
-0.0339979 0.241674 0.0332002 -0.0159603 -0.314716 -0.949052
-0.0520517 0.241674 0.0332002 -0.0159589 -0.314715 -0.949052
-0.0701043 0.241674 0.0332002 -0.0159603 -0.314716 -0.949052
-0.088158 0.241674 0.0332002 -0.0159591 -0.314715 -0.949052
-0.106211 0.241674 0.0332002 -0.0159624 -0.314715 -0.949052
-0.124264 0.241674 0.0332002 -0.0159587 -0.314715 -0.949052
-0.142317 0.241674 0.0332002 -0.0136816 -0.314974 -0.949002
-0.160371 0.241674 0.0332002 0.0065962 -0.314356 -0.949282
-0.178423 0.241674 0.032866 0.0794778 -0.31181 -0.946815
-0.196477 0.241674 0.0310273 0.236507 -0.307421 -0.921714
-0.214095 0.241306 0.0255449 0.415301 -0.241325 -0.87709
-0.337109 0.241917 0.0432128 0.960666 0.262068 -0.0918766
0.320807 0.224441 0.0364653 -0.974754 0.0747144 -0.21041
0.215336 0.22352 0.0258792 -0.471915 -0.0860482 -0.877435
0.198019 0.22362 0.0325317 -0.32949 -0.126357 -0.935666
0.179965 0.22362 0.0352065 -0.147243 -0.144466 -0.978493
0.161913 0.22362 0.0358749 -0.0522786 -0.148668 -0.987504
0.143859 0.22362 0.0358749 -0.019445 -0.151462 -0.988272
0.125806 0.22362 0.0358749 -0.0127683 -0.151732 -0.988339
0.107753 0.22362 0.0358749 -0.0127593 -0.151731 -0.988339
0.0897001 0.22362 0.0358749 -0.0127677 -0.151732 -0.988339
0.0716464 0.22362 0.0358749 -0.0127603 -0.151732 -0.988339
0.0535937 0.22362 0.0358749 -0.0127677 -0.151732 -0.988339
0.03554 0.22362 0.0358749 -0.0127602 -0.151732 -0.988339
0.0174874 0.22362 0.0358749 -0.0127699 -0.151732 -0.988339
-0.00056633 0.22362 0.0358749 -0.0127601 -0.151732 -0.988339
-0.01862 0.22362 0.0358749 -0.0127562 -0.151731 -0.98834
-0.0366727 0.22362 0.0358749 -0.01276 -0.151732 -0.988339
-0.0547264 0.22362 0.0358749 -0.0127587 -0.151731 -0.988339
-0.072779 0.22362 0.0358749 -0.01276 -0.151732 -0.988339
-0.0908328 0.22362 0.0358749 -0.0127587 -0.151731 -0.988339
-0.108885 0.22362 0.0358749 -0.0127599 -0.151732 -0.988339
-0.126939 0.22362 0.0358749 -0.0127588 -0.151731 -0.988339
-0.144992 0.22362 0.0358749 -0.00781375 -0.152097 -0.988335
