ply
format ascii 1.0
element vertex 814
property float x
property float y
property float z
property float nx
property float ny
property float nz
end_header
0.398816 0.0372521 0.0203429 0.335321 2.69436e-007 -0.942104
0.382478 0.0372521 0.0178299 0.13355 0.00594506 -0.991024
0.365512 0.0372521 0.0172011 0.0409362 -1.022e-007 -0.999162
0.348547 0.0372521 0.0172011 0.00485392 -6.25856e-009 -0.999988
0.33158 0.0372521 0.0172011 7.44375e-018 5.88741e-018 -1
0.314615 0.0372521 0.0172011 2.19031e-019 9.17523e-018 -1
0.297648 0.0372521 0.0172011 -1.31862e-018 3.94763e-017 -1
0.280683 0.0372521 0.0172011 5.42292e-019 2.27184e-017 -1
0.263716 0.0372521 0.0172011 -7.13222e-018 2.34488e-017 -1
0.246751 0.0372521 0.0172011 -4.87675e-018 5.56463e-018 -1
0.229785 0.0372521 0.0172011 -0 0 -1
0.212819 0.0372521 0.0172011 -5.68337e-018 9.07583e-019 -1
0.195853 0.0372521 0.0172011 -4.36578e-018 1.55594e-017 -1
0.178887 0.0372521 0.0172011 1.39429e-018 -8.85371e-018 -1
0.161921 0.0372521 0.0172011 -5.68337e-018 -9.07583e-019 -1
0.144956 0.0372521 0.0172011 9.71669e-018 -8.07855e-018 -1
0.127989 0.0372521 0.0172011 -4.36578e-018 1.40606e-017 -1
0.111024 0.0372521 0.0172011 1.20532e-017 1.81261e-019 -1
0.0940573 0.0372521 0.0172011 -8.36725e-018 -7.85214e-018 -1
0.0770909 0.0372521 0.0172011 1.27518e-017 -7.37331e-019 -1
0.0601255 0.0372521 0.0172011 -3.36569e-018 1.92598e-017 -1
0.0431591 0.0372521 0.0172011 -0 0 -1
0.0261937 0.0372521 0.0172011 -0 -0 -1
0.00922723 0.0372521 0.0172011 4.73434e-018 -1.7507e-017 -1
-0.00773813 0.0372521 0.0172011 -2.3847e-018 1.12651e-017 -1
-0.0247046 0.0372521 0.0172011 -1.01126e-018 3.04955e-019 -1
-0.04167 0.0372521 0.0172011 1.35371e-018 -1.21659e-017 -1
-0.0586364 0.0372521 0.0172011 -4.7438e-018 1.14648e-017 -1
-0.0756018 0.0372521 0.0172011 -2.76645e-018 -1.38844e-017 -1
-0.0925682 0.0372521 0.0172011 -1.02072e-018 -5.73553e-018 -1
-0.109534 0.0372521 0.0172011 -2.76645e-018 -1.34881e-017 -1
-0.1265 0.0372521 0.0172011 -2.26277e-018 -3.17093e-017 -1
-0.143465 0.0372521 0.0172011 -1.39429e-018 8.84841e-018 -1
-0.160432 0.0372521 0.0172011 3.06682e-018 -1.44983e-018 -1
-0.177397 0.0372521 0.0172011 3.06681e-018 -6.86322e-019 -1
-0.194364 0.0372521 0.0172011 5.68336e-018 9.20816e-019 -1
-0.211329 0.0372521 0.0172011 2.45952e-019 4.60895e-018 -1
-0.228296 0.0372521 0.0172011 -1.48829e-017 2.06355e-017 -1
-0.245261 0.0372521 0.0172011 -2.16621e-020 -1.54073e-017 -1
-0.262227 0.0372521 0.0172011 5.51915e-018 1.5114e-018 -1
-0.279193 0.0372521 0.0172011 6.25774e-018 -1.67065e-017 -1
-0.296159 0.0372521 0.0172011 -0 0 -1
-0.313125 0.0372521 0.0172011 -6.46494e-018 -1.28134e-017 -1
-0.330091 0.0372521 0.0172011 0 -2.04129e-017 -1
-0.347057 0.0372521 0.0172011 -2.80635e-018 -1.68537e-018 -1
-0.364023 0.0372521 0.0172011 -1.95694e-018 1.79387e-018 -1
-0.380989 0.0372521 0.0172011 9.39557e-019 1.2401e-017 -1
-0.397955 0.0372521 0.0172011 9.39552e-019 -1.24037e-017 -1
-0.414921 0.0372521 0.0172011 6.67584e-018 -6.36441e-019 -1
-0.431886 0.0372521 0.0172011 1.22197e-017 1.54443e-017 -1
-0.448853 0.0372521 0.0172011 1.31863e-018 -3.9471e-017 -1
-0.465818 0.0372521 0.0172011 -1.48784e-017 2.06273e-017 -1
-0.482785 0.0372521 0.0172011 -1.13973e-017 1.4392e-017 -1
-0.49975 0.0372521 0.0172011 4.60316e-018 1.3673e-017 -1
-0.516717 0.0372521 0.0172011 -0.00485391 -6.25855e-009 -0.999988
-0.533682 0.0372521 0.0172011 -0.0409361 -1.02201e-007 -0.999162
-0.550649 0.0372521 0.0178299 -0.13355 0.00594506 -0.991024
-0.566986 0.0372521 0.0203429 -0.335321 2.69438e-007 -0.942104
-0.581439 0.0372521 0.0266275 -0.600541 1.7931e-007 -0.799594
0.413268 0.0202868 0.0266275 0.600539 -1.81123e-007 -0.799595
0.398816 0.0202868 0.0203429 0.335321 -2.72133e-007 -0.942104
0.382478 0.0202868 0.0178299 0.134675 0.00204374 -0.990888
0.365512 0.0202868 0.0172011 0.0409362 1.03223e-007 -0.999162
0.348547 0.0202868 0.0172011 0.00485392 6.16792e-009 -0.999988
0.33158 0.0202868 0.0172011 -5.88757e-019 1.26208e-017 -1
0.314615 0.0202868 0.0172011 -2.91664e-018 3.34124e-018 -1
0.297648 0.0202868 0.0172011 3.06208e-018 1.1119e-017 -1
0.280683 0.0202868 0.0172011 6.24568e-018 -1.14344e-017 -1
0.263716 0.0202868 0.0172011 -3.52653e-018 1.81963e-017 -1
0.246751 0.0202868 0.0172011 -9.80427e-018 -3.00177e-018 -1
0.229785 0.0202868 0.0172011 0 -0 -1
0.212819 0.0202868 0.0172011 1.02011e-017 -2.88087e-018 -1
0.195853 0.0202868 0.0172011 7.73796e-018 3.3022e-018 -1
0.178887 0.0202868 0.0172011 -3.05392e-018 -6.2555e-018 -1
0.161921 0.0202868 0.0172011 1.45379e-017 -1.56662e-017 -1
0.144956 0.0202868 0.0172011 9.75891e-019 -2.55134e-021 -1
0.127989 0.0202868 0.0172011 3.74773e-018 6.18099e-018 -1
0.111024 0.0202868 0.0172011 1.15202e-017 -1.57159e-018 -1
0.0940573 0.0202868 0.0172011 1.79617e-018 2.93383e-021 -1
0.0770909 0.0202868 0.0172011 6.546e-018 -3.44232e-018 -1
0.0601255 0.0202868 0.0172011 -0 0 -1
0.0431591 0.0202868 0.0172011 0 -0 -1
0.0261937 0.0202868 0.0172011 -0 -0 -1
0.00922723 0.0202868 0.0172011 1.0142e-017 -2.74221e-017 -1
-0.00773813 0.0202868 0.0172011 -0 0 -1
-0.0247046 0.0202868 0.0172011 -3.5462e-018 8.01681e-018 -1
-0.04167 0.0202868 0.0172011 -2.3839e-019 3.93667e-017 -1
-0.0586364 0.0202868 0.0172011 -6.01183e-018 -6.18557e-018 -1
-0.0756018 0.0202868 0.0172011 -1.07476e-020 -1.3035e-017 -1
-0.0925682 0.0202868 0.0172011 5.06453e-018 2.31809e-017 -1
-0.109534 0.0202868 0.0172011 -4.48522e-018 1.45677e-017 -1
-0.1265 0.0202868 0.0172011 4.61002e-018 3.19608e-017 -1
-0.143465 0.0202868 0.0172011 9.14901e-018 2.28936e-017 -1
-0.160432 0.0202868 0.0172011 -7.44395e-018 7.53386e-018 -1
-0.177397 0.0202868 0.0172011 4.61002e-018 -3.19553e-017 -1
-0.194364 0.0202868 0.0172011 2.16126e-018 -2.38121e-017 -1
-0.211329 0.0202868 0.0172011 -1.33056e-017 3.73292e-018 -1
-0.228296 0.0202868 0.0172011 -1.48826e-017 6.67213e-018 -1
-0.245261 0.0202868 0.0172011 3.92567e-018 1.58721e-018 -1
-0.262227 0.0202868 0.0172011 4.61002e-018 3.19581e-017 -1
-0.279193 0.0202868 0.0172011 -0 0 -1
-0.296159 0.0202868 0.0172011 -6.24637e-018 -1.14344e-017 -1
-0.313125 0.0202868 0.0172011 1.39792e-017 -3.44897e-018 -1
-0.330091 0.0202868 0.0172011 0 0 -1
-0.347057 0.0202868 0.0172011 -3.83598e-018 -8.99942e-018 -1
-0.364023 0.0202868 0.0172011 -4.6816e-018 1.32187e-017 -1
-0.380989 0.0202868 0.0172011 -3.17485e-020 -2.55866e-018 -1
-0.397955 0.0202868 0.0172011 -2.23205e-018 2.11334e-017 -1
-0.414921 0.0202868 0.0172011 -4.6816e-018 -1.32352e-017 -1
-0.431886 0.0202868 0.0172011 -4.6816e-018 1.32352e-017 -1
-0.448853 0.0202868 0.0172011 -3.06207e-018 -9.20737e-019 -1
-0.465818 0.0202868 0.0172011 -1.48787e-017 6.68028e-018 -1
-0.482785 0.0202868 0.0172011 -7.29678e-019 8.14031e-019 -1
-0.49975 0.0202868 0.0172011 -4.80604e-018 -3.15339e-018 -1
-0.516717 0.0202868 0.0172011 -0.00485391 6.16792e-009 -0.999988
-0.533682 0.0202868 0.0172011 -0.0409361 1.03223e-007 -0.999162
-0.550649 0.0202868 0.0178299 -0.134675 0.00204374 -0.990888
-0.566986 0.0202868 0.0203429 -0.335321 -2.72135e-007 -0.942104
-0.581439 0.0202868 0.0266275 -0.600541 -1.81127e-007 -0.799594
0.413268 0.0033203 0.0266275 0.600539 1.81354e-007 -0.799595
0.398816 0.0033203 0.0203429 0.335321 2.7248e-007 -0.942104
0.382478 0.0033203 0.0178299 0.134675 -0.00204374 -0.990888
0.365512 0.0033203 0.0172011 0.0409362 -1.03355e-007 -0.999162
0.348547 0.0033203 0.0172011 0.00485392 -6.17582e-009 -0.999988
0.33158 0.0033203 0.0172011 8.03428e-018 -1.83616e-017 -1
0.314615 0.0033203 0.0172011 -5.95691e-018 -1.30857e-018 -1
0.297648 0.0033203 0.0172011 -1.06276e-017 -8.85262e-018 -1
0.280683 0.0033203 0.0172011 -6.73356e-018 2.07717e-017 -1
0.263716 0.0033203 0.0172011 -3.52656e-018 -1.81965e-017 -1
0.246751 0.0033203 0.0172011 7.44312e-018 -4.66384e-018 -1
0.229785 0.0033203 0.0172011 -0 0 -1
0.212819 0.0033203 0.0172011 -4.58108e-018 -1.04642e-017 -1
0.195853 0.0033203 0.0172011 -7.04442e-018 -2.5809e-018 -1
0.178887 0.0033203 0.0172011 -3.05356e-018 3.74587e-018 -1
0.161921 0.0033203 0.0172011 -1.25629e-017 2.96589e-017 -1
0.144956 0.0033203 0.0172011 9.89426e-018 -1.86471e-017 -1
0.127989 0.0033203 0.0172011 -9.8043e-018 1.23537e-017 -1
0.111024 0.0033203 0.0172011 1.2877e-018 -1.28816e-017 -1
0.0940573 0.0033203 0.0172011 1.79605e-018 9.67997e-018 -1
0.0770909 0.0033203 0.0172011 -1.24979e-017 -1.37991e-017 -1
0.0601255 0.0033203 0.0172011 4.79163e-018 -7.47703e-018 -1
0.0431591 0.0033203 0.0172011 -0 0 -1
0.0261937 0.0033203 0.0172011 0 -0 -1
0.00922723 0.0033203 0.0172011 -2.157e-019 7.2186e-018 -1
-0.00773813 0.0033203 0.0172011 -4.56623e-022 9.06376e-018 -1
-0.0247046 0.0033203 0.0172011 -6.0734e-018 -1.24902e-017 -1
-0.04167 0.0033203 0.0172011 -2.37391e-019 -3.92872e-017 -1
-0.0586364 0.0033203 0.0172011 -3.21821e-018 -1.48677e-017 -1
-0.0756018 0.0033203 0.0172011 -1.07307e-020 1.30349e-017 -1
-0.0925682 0.0033203 0.0172011 5.06652e-018 -2.33658e-017 -1
-0.109534 0.0033203 0.0172011 -2.02121e-018 8.54583e-018 -1
-0.1265 0.0033203 0.0172011 4.61007e-018 -3.19604e-017 -1
-0.143465 0.0033203 0.0172011 9.153e-018 -2.25239e-017 -1
-0.160432 0.0033203 0.0172011 4.87552e-018 1.3074e-017 -1
-0.177397 0.0033203 0.0172011 4.61007e-018 3.19549e-017 -1
-0.194364 0.0033203 0.0172011 1.58523e-017 2.14224e-017 -1
-0.211329 0.0033203 0.0172011 -1.20736e-017 -2.09824e-017 -1
-0.228296 0.0033203 0.0172011 2.08423e-017 -1.74969e-017 -1
-0.245261 0.0033203 0.0172011 -6.32923e-019 -3.60151e-017 -1
-0.262227 0.0033203 0.0172011 4.61007e-018 -3.19577e-017 -1
-0.279193 0.0033203 0.0172011 1.31037e-017 1.71581e-017 -1
-0.296159 0.0033203 0.0172011 6.59226e-018 -5.01233e-018 -1
-0.313125 0.0033203 0.0172011 -5.03139e-018 6.6568e-018 -1
-0.330091 0.0033203 0.0172011 -0 2.77556e-017 -1
-0.347057 0.0033203 0.0172011 4.4661e-018 -1.38189e-017 -1
-0.364023 0.0033203 0.0172011 -4.68153e-018 -1.32193e-017 -1
-0.380989 0.0033203 0.0172011 -5.29845e-018 -3.11411e-018 -1
-0.397955 0.0033203 0.0172011 -3.16785e-018 -1.49464e-018 -1
-0.414921 0.0033203 0.0172011 -4.68153e-018 1.32358e-017 -1
-0.431886 0.0033203 0.0172011 -4.68153e-018 -1.32358e-017 -1
-0.448853 0.0033203 0.0172011 1.06276e-017 -1.34567e-018 -1
-0.465818 0.0033203 0.0172011 2.0847e-017 -1.75054e-017 -1
-0.482785 0.0033203 0.0172011 -4.0234e-018 -4.71952e-018 -1
-0.49975 0.0033203 0.0172011 6.4857e-018 2.85222e-017 -1
-0.516717 0.0033203 0.0172011 -0.00485391 -6.17581e-009 -0.999988
-0.533682 0.0033203 0.0172011 -0.0409361 -1.03355e-007 -0.999162
-0.550649 0.0033203 0.0178299 -0.134675 -0.00204374 -0.990888
-0.566986 0.0033203 0.0203429 -0.335321 2.72483e-007 -0.942104
-0.581439 0.0033203 0.0266275 -0.600541 1.81358e-007 -0.799594
0.413268 -0.0136451 0.0266275 0.600441 0.00331915 -0.799662
0.398816 -0.0136451 0.0203429 0.335088 0.00154609 -0.942186
0.382478 -0.0136451 0.0178299 0.134544 0.00238817 -0.990905
0.365512 -0.0136451 0.0172011 0.0409362 1.03506e-007 -0.999162
0.348547 -0.0136451 0.0172011 0.00485392 6.16461e-009 -0.999988
0.33158 -0.0136451 0.0172011 -7.98005e-018 1.63007e-017 -1
0.314615 -0.0136451 0.0172011 -2.44084e-018 -1.19833e-017 -1
0.297648 -0.0136451 0.0172011 1.13695e-017 9.96038e-018 -1
0.280683 -0.0136451 0.0172011 3.53616e-018 1.24893e-017 -1
0.263716 -0.0136451 0.0172011 -3.52654e-018 1.81965e-017 -1
0.246751 -0.0136451 0.0172011 7.44273e-018 -7.53802e-018 -1
0.229785 -0.0136451 0.0172011 0 -0 -1
0.212819 -0.0136451 0.0172011 -8.85481e-019 5.90354e-018 -1
0.195853 -0.0136451 0.0172011 1.51295e-017 1.9632e-017 -1
0.178887 -0.0136451 0.0172011 -7.98142e-018 2.79836e-018 -1
0.161921 -0.0136451 0.0172011 -5.17182e-018 -9.01254e-018 -1
0.144956 -0.0136451 0.0172011 7.05684e-018 5.27042e-018 -1
0.127989 -0.0136451 0.0172011 -6.10831e-018 6.25634e-018 -1
0.111024 -0.0136451 0.0172011 -8.91246e-018 -2.13092e-018 -1
0.0940573 -0.0136451 0.0172011 3.22315e-018 -5.81167e-018 -1
0.0770909 -0.0136451 0.0172011 -5.12053e-018 -4.00173e-018 -1
0.0601255 -0.0136451 0.0172011 -0 0 -1
0.0431591 -0.0136451 0.0172011 0 -0 -1
0.0261937 -0.0136451 0.0172011 -0 -0 -1
0.00922723 -0.0136451 0.0172011 7.00227e-020 1.63598e-017 -1
-0.00773813 -0.0136451 0.0172011 2.86798e-018 2.70702e-017 -1
-0.0247046 -0.0136451 0.0172011 4.43291e-018 8.96733e-018 -1
-0.04167 -0.0136451 0.0172011 7.09455e-018 4.87033e-018 -1
-0.0586364 -0.0136451 0.0172011 -1.22101e-017 1.45688e-017 -1
-0.0756018 -0.0136451 0.0172011 -1.07381e-020 -1.30349e-017 -1
-0.0925682 -0.0136451 0.0172011 -2.26622e-018 -1.1088e-017 -1
-0.109534 -0.0136451 0.0172011 5.37098e-018 1.63814e-017 -1
-0.1265 -0.0136451 0.0172011 -1.12646e-018 1.98259e-018 -1
-0.143465 -0.0136451 0.0172011 -5.51154e-018 -1.08139e-017 -1
-0.160432 -0.0136451 0.0172011 1.84251e-017 6.78885e-018 -1
-0.177397 -0.0136451 0.0172011 -1.12645e-018 -1.97709e-018 -1
-0.194364 -0.0136451 0.0172011 -6.14517e-018 -2.25466e-017 -1
-0.211329 -0.0136451 0.0172011 1.62603e-017 -6.67368e-018 -1
-0.228296 -0.0136451 0.0172011 3.59592e-018 3.11097e-018 -1
-0.245261 -0.0136451 0.0172011 6.69857e-018 1.61874e-018 -1
-0.262227 -0.0136451 0.0172011 -1.12646e-018 1.97984e-018 -1
-0.279193 -0.0136451 0.0172011 -6.24637e-018 1.14344e-017 -1
-0.296159 -0.0136451 0.0172011 0 -0 -1
-0.313125 -0.0136451 0.0172011 2.84282e-018 1.08638e-017 -1
-0.330091 -0.0136451 0.0172011 -0 -4.01638e-017 -1
-0.347057 -0.0136451 0.0172011 -5.56919e-018 -2.12298e-018 -1
-0.364023 -0.0136451 0.0172011 3.92338e-018 1.93757e-017 -1
-0.380989 -0.0136451 0.0172011 1.22479e-018 1.81911e-018 -1
-0.397955 -0.0136451 0.0172011 6.63225e-018 -3.33724e-017 -1
-0.414921 -0.0136451 0.0172011 3.92338e-018 -1.93922e-017 -1
-0.431886 -0.0136451 0.0172011 3.92338e-018 1.93922e-017 -1
-0.448853 -0.0136451 0.0172011 -1.13695e-017 2.37931e-019 -1
-0.465818 -0.0136451 0.0172011 -7.43919e-018 -7.53388e-018 -1
-0.482785 -0.0136451 0.0172011 4.58148e-018 -1.43692e-018 -1
-0.49975 -0.0136451 0.0172011 2.15681e-017 1.20526e-019 -1
-0.516717 -0.0136451 0.0172011 -0.00485391 6.16461e-009 -0.999988
-0.533682 -0.0136451 0.0172011 -0.0409361 1.03506e-007 -0.999162
-0.550649 -0.0136451 0.0178299 -0.134675 0.00204374 -0.990888
-0.566986 -0.0136451 0.0203429 -0.335321 -2.72881e-007 -0.942104
-0.581439 -0.0136451 0.0266275 -0.600541 -1.81626e-007 -0.799594
0.413268 -0.0306115 0.0266275 0.598275 0.0155408 -0.80114
0.398816 -0.0306115 0.0203429 0.331721 0.00824724 -0.943341
0.382478 -0.0306115 0.0178299 0.131754 0.00860933 -0.991245
0.365512 -0.0306115 0.0172011 0.040575 0.000351968 -0.999176
0.348547 -0.0306115 0.0172011 0.00485392 -6.27435e-009 -0.999988
0.33158 -0.0306115 0.0172011 8.03482e-018 -5.11677e-018 -1
0.314615 -0.0306115 0.0172011 -5.81695e-018 1.08496e-017 -1
0.297648 -0.0306115 0.0172011 4.33497e-020 -3.08216e-017 -1
0.280683 -0.0306115 0.0172011 7.19661e-018 2.21864e-018 -1
0.263716 -0.0306115 0.0172011 -2.72958e-018 3.02724e-017 -1
0.246751 -0.0306115 0.0172011 -8.57319e-018 6.48438e-018 -1
0.229785 -0.0306115 0.0172011 -0 0 -1
0.212819 -0.0306115 0.0172011 4.42976e-018 5.80615e-018 -1
0.195853 -0.0306115 0.0172011 -4.36371e-018 1.52143e-017 -1
0.178887 -0.0306115 0.0172011 -2.72959e-018 -3.52682e-017 -1
0.161921 -0.0306115 0.0172011 4.42976e-018 -5.80615e-018 -1
0.144956 -0.0306115 0.0172011 1.32691e-017 -8.86602e-018 -1
0.127989 -0.0306115 0.0172011 -7.46532e-018 -9.19925e-018 -1
0.111024 -0.0306115 0.0172011 1.88903e-019 6.48962e-018 -1
0.0940573 -0.0306115 0.0172011 -8.36724e-018 -8.77414e-018 -1
0.0770909 -0.0306115 0.0172011 1.44802e-017 -4.65283e-018 -1
0.0601255 -0.0306115 0.0172011 -0 -0 -1
0.0431591 -0.0306115 0.0172011 -0 0 -1
0.0261937 -0.0306115 0.0172011 0 -0 -1
0.00922723 -0.0306115 0.0172011 -6.72968e-018 -2.47111e-019 -1
-0.00773813 -0.0306115 0.0172011 9.20207e-018 1.16207e-017 -1
-0.0247046 -0.0306115 0.0172011 1.04232e-017 -8.86963e-018 -1
-0.04167 -0.0306115 0.0172011 4.36749e-018 -1.29132e-017 -1
-0.0586364 -0.0306115 0.0172011 -4.38642e-018 -2.49973e-017 -1
-0.0756018 -0.0306115 0.0172011 -8.94079e-018 -8.95058e-018 -1
-0.0925682 -0.0306115 0.0172011 -2.16748e-020 1.54055e-017 -1
-0.109534 -0.0306115 0.0172011 -2.22798e-018 1.32707e-017 -1
-0.1265 -0.0306115 0.0172011 7.46532e-018 1.21623e-017 -1
-0.143465 -0.0306115 0.0172011 -4.40808e-018 9.59449e-018 -1
-0.160432 -0.0306115 0.0172011 7.46533e-018 6.1673e-018 -1
-0.177397 -0.0306115 0.0172011 7.46532e-018 -8.23454e-018 -1
-0.194364 -0.0306115 0.0172011 -4.42976e-018 5.82159e-018 -1
-0.211329 -0.0306115 0.0172011 2.70861e-018 9.5683e-018 -1
-0.228296 -0.0306115 0.0172011 1.09883e-017 -1.93793e-017 -1
-0.245261 -0.0306115 0.0172011 -2.16748e-020 -1.54081e-017 -1
-0.262227 -0.0306115 0.0172011 7.46532e-018 8.92362e-018 -1
-0.279193 -0.0306115 0.0172011 0 -0 -1
-0.296159 -0.0306115 0.0172011 -0 0 -1
-0.313125 -0.0306115 0.0172011 -8.61747e-018 6.50862e-018 -1
-0.330091 -0.0306115 0.0172011 -1.31569e-032 5.72754e-018 -1
-0.347057 -0.0306115 0.0172011 1.56029e-017 6.48172e-018 -1
-0.364023 -0.0306115 0.0172011 -1.03335e-018 -2.87e-018 -1
-0.380989 -0.0306115 0.0172011 9.39519e-019 1.24035e-017 -1
-0.397955 -0.0306115 0.0172011 9.39514e-019 -1.24061e-017 -1
-0.414921 -0.0306115 0.0172011 5.88976e-018 -5.13158e-018 -1
-0.431886 -0.0306115 0.0172011 1.15589e-017 2.05127e-018 -1
-0.448853 -0.0306115 0.0172011 -4.33497e-020 3.08269e-017 -1
-0.465818 -0.0306115 0.0172011 1.09898e-017 -1.93871e-017 -1
-0.482785 -0.0306115 0.0172011 -4.20109e-018 -1.66184e-018 -1
-0.49975 -0.0306115 0.0172011 4.60308e-018 1.36681e-017 -1
-0.516717 -0.0306115 0.0172011 -0.00485391 -6.27434e-009 -0.999988
-0.533682 -0.0306115 0.0172011 -0.0409361 -1.02464e-007 -0.999162
-0.550649 -0.0306115 0.0178299 -0.13355 0.00594506 -0.991024
-0.566986 -0.0306115 0.0203429 -0.335321 2.70132e-007 -0.942104
-0.581439 -0.0306115 0.0266275 -0.600541 1.79772e-007 -0.799594
0.413285 -0.0473885 0.0262813 0.585915 0.0360048 -0.809572
0.398784 -0.0474827 0.0202486 0.319613 0.0194887 -0.947348
0.382478 -0.0475769 0.0178299 0.124183 0.00067806 -0.992259
0.365512 -0.0475769 0.0172011 0.0387262 0.00192127 -0.999248
0.348547 -0.0475769 0.0172011 0.00485392 6.36294e-009 -0.999988
0.33158 -0.0475769 0.0172011 3.74697e-018 6.26035e-018 -1
0.314615 -0.0475769 0.0172011 8.49733e-018 -1.72183e-018 -1
0.297648 -0.0475769 0.0172011 -3.32719e-018 -4.88861e-018 -1
0.280683 -0.0475769 0.0172011 -2.74229e-018 2.90297e-017 -1
0.263716 -0.0475769 0.0172011 -2.74229e-018 -3.2096e-017 -1
0.246751 -0.0475769 0.0172011 7.44438e-018 -1.87628e-017 -1
0.229785 -0.0475769 0.0172011 2.19967e-020 1.54069e-017 -1
0.212819 -0.0475769 0.0172011 -6.74781e-018 -8.77142e-018 -1
0.195853 -0.0475769 0.0172011 8.96753e-018 3.60056e-018 -1
0.178887 -0.0475769 0.0172011 1.28574e-018 -6.72404e-018 -1
0.161921 -0.0475769 0.0172011 -3.05607e-018 7.54012e-018 -1
0.144956 -0.0475769 0.0172011 -3.10796e-018 -2.33122e-017 -1
0.127989 -0.0475769 0.0172011 9.857e-019 1.77084e-017 -1
0.111024 -0.0475769 0.0172011 1.44318e-017 -6.13501e-018 -1
0.0940573 -0.0475769 0.0172011 4.89565e-018 8.37109e-018 -1
0.0770909 -0.0475769 0.0172011 -5.12081e-018 -7.07907e-018 -1
0.0601255 -0.0475769 0.0172011 5.74294e-018 9.67508e-018 -1
0.0431591 -0.0475769 0.0172011 -0 -0 -1
0.0261937 -0.0475769 0.0172011 -0 0 -1
0.00922723 -0.0475769 0.0172011 1.944e-018 8.43205e-019 -1
-0.00773813 -0.0475769 0.0172011 -1.44358e-017 -3.53651e-018 -1
-0.0247046 -0.0475769 0.0172011 6.64964e-018 3.26318e-018 -1
-0.04167 -0.0475769 0.0172011 -5.74573e-018 1.78128e-017 -1
-0.0586364 -0.0475769 0.0172011 -7.24592e-018 3.3089e-018 -1
-0.0756018 -0.0475769 0.0172011 3.10796e-018 2.25542e-017 -1
-0.0925682 -0.0475769 0.0172011 -3.3876e-018 3.85322e-018 -1
-0.109534 -0.0475769 0.0172011 -1.18743e-017 8.15149e-018 -1
-0.1265 -0.0475769 0.0172011 -8.49733e-018 -1.79074e-018 -1
-0.143465 -0.0475769 0.0172011 5.70452e-018 -1.44898e-017 -1
-0.160432 -0.0475769 0.0172011 4.87222e-018 -1.04837e-017 -1
-0.177397 -0.0475769 0.0172011 -6.27571e-018 1.24245e-017 -1
-0.194364 -0.0475769 0.0172011 3.32718e-018 4.8939e-018 -1
-0.211329 -0.0475769 0.0172011 5.17512e-018 -1.10523e-017 -1
-0.228296 -0.0475769 0.0172011 3.59413e-018 -1.53896e-017 -1
-0.245261 -0.0475769 0.0172011 3.32718e-018 -4.8939e-018 -1
-0.262227 -0.0475769 0.0172011 -1.05866e-017 -1.30416e-017 -1
-0.279193 -0.0475769 0.0172011 2.7423e-018 -3.40254e-017 -1
-0.296159 -0.0475769 0.0172011 2.7423e-018 3.40254e-017 -1
-0.313125 -0.0475769 0.0172011 1.13187e-017 2.20903e-018 -1
-0.330091 -0.0475769 0.0172011 0 0 -1
-0.347057 -0.0475769 0.0172011 1.24407e-017 7.80765e-018 -1
-0.364023 -0.0475769 0.0172011 4.41782e-019 8.94204e-019 -1
-0.380989 -0.0475769 0.0172011 -5.80335e-018 1.84057e-017 -1
-0.397955 -0.0475769 0.0172011 -5.80335e-018 -1.8403e-017 -1
-0.414921 -0.0475769 0.0172011 3.66873e-018 1.35629e-018 -1
-0.431886 -0.0475769 0.0172011 -1.40485e-017 9.83794e-018 -1
-0.448853 -0.0475769 0.0172011 -5.82534e-018 2.98729e-018 -1
-0.465818 -0.0475769 0.0172011 3.60219e-018 -1.53807e-017 -1
-0.482785 -0.0475769 0.0172011 -2.18558e-018 -4.5917e-021 -1
-0.49975 -0.0475769 0.0172011 4.60115e-018 -1.36543e-017 -1
-0.516717 -0.0475769 0.0172011 -0.00485391 6.36293e-009 -0.999988
-0.533682 -0.0475769 0.0172011 -0.0409361 1.02421e-007 -0.999162
-0.550649 -0.0475769 0.0178299 -0.13355 -0.00594506 -0.991024
-0.566986 -0.0475769 0.0203429 -0.335321 -2.70019e-007 -0.942104
-0.581439 -0.0475769 0.0266275 -0.600541 -1.79683e-007 -0.799594
0.413473 -0.0636407 0.0253633 0.554629 0.0634593 -0.829674
0.39891 -0.064287 0.0199299 0.286666 0.0363425 -0.957341
0.382478 -0.0645434 0.017751 0.117836 0.00883112 -0.992994
0.365512 -0.0645434 0.0172011 0.0342265 0.00452276 -0.999404
0.348547 -0.0645434 0.0172011 0.00424507 -5.36e-009 -0.999991
0.33158 -0.0645434 0.0172011 1.87564e-018 -3.21954e-018 -1
0.314615 -0.0645434 0.0172011 2.87131e-020 3.34115e-017 -1
0.297648 -0.0645434 0.0172011 -6.7004e-018 -4.47378e-018 -1
0.280683 -0.0645434 0.0172011 -3.95185e-018 -1.40336e-017 -1
0.263716 -0.0645434 0.0172011 -3.95185e-018 1.40322e-017 -1
0.246751 -0.0645434 0.0172011 -1.18147e-018 -1.66718e-017 -1
0.229785 -0.0645434 0.0172011 -6.7004e-018 8.32096e-019 -1
0.212819 -0.0645434 0.0172011 1.57934e-018 -5.50703e-018 -1
0.195853 -0.0645434 0.0172011 -3.95187e-018 1.40226e-017 -1
0.178887 -0.0645434 0.0172011 -3.95187e-018 -1.40226e-017 -1
0.161921 -0.0645434 0.0172011 1.57934e-018 5.50703e-018 -1
0.144956 -0.0645434 0.0172011 3.97345e-018 -1.20446e-017 -1
0.127989 -0.0645434 0.0172011 2.87131e-020 -3.34033e-017 -1
0.111024 -0.0645434 0.0172011 -1.71907e-017 7.97814e-018 -1
0.0940573 -0.0645434 0.0172011 -1.30146e-017 -2.62979e-017 -1
0.0770909 -0.0645434 0.0172011 4.81282e-018 1.67352e-018 -1
0.0601255 -0.0645434 0.0172011 1.57863e-019 -4.18976e-017 -1
0.0431591 -0.0645434 0.0172011 -0 0 -1
0.0261937 -0.0645434 0.0172011 -0 0 -1
0.00922723 -0.0645434 0.0172011 4.62042e-018 6.64432e-018 -1
-0.00773813 -0.0645434 0.0172011 -6.89115e-022 1.35956e-017 -1
-0.0247046 -0.0645434 0.0172011 -3.54622e-018 -8.0166e-018 -1
-0.04167 -0.0645434 0.0172011 7.09524e-018 -4.81693e-018 -1
-0.0586364 -0.0645434 0.0172011 -3.97346e-018 -1.2044e-017 -1
-0.0756018 -0.0645434 0.0172011 6.61705e-019 -5.45783e-017 -1
-0.0925682 -0.0645434 0.0172011 6.7004e-018 1.85531e-018 -1
-0.109534 -0.0645434 0.0172011 -3.97346e-018 1.20453e-017 -1
-0.1265 -0.0645434 0.0172011 -2.87131e-020 3.34033e-017 -1
-0.143465 -0.0645434 0.0172011 8.43366e-019 -2.16798e-017 -1
-0.160432 -0.0645434 0.0172011 -3.05452e-018 1.04757e-017 -1
-0.177397 -0.0645434 0.0172011 -2.87131e-020 -3.3406e-017 -1
-0.194364 -0.0645434 0.0172011 -3.05452e-018 4.54972e-018 -1
-0.211329 -0.0645434 0.0172011 5.17264e-018 1.18954e-017 -1
-0.228296 -0.0645434 0.0172011 -1.33136e-018 -2.74684e-017 -1
-0.245261 -0.0645434 0.0172011 -3.05452e-018 -4.54972e-018 -1
-0.262227 -0.0645434 0.0172011 -2.87131e-020 3.34033e-017 -1
-0.279193 -0.0645434 0.0172011 3.95186e-018 1.4024e-017 -1
-0.296159 -0.0645434 0.0172011 -0 0 -1
-0.313125 -0.0645434 0.0172011 1.22433e-017 -1.7879e-019 -1
-0.330091 -0.0645434 0.0172011 5.74028e-033 2.21613e-018 -1
-0.347057 -0.0645434 0.0172011 -5.65689e-018 1.46716e-017 -1
-0.364023 -0.0645434 0.0172011 -7.2993e-019 8.11881e-019 -1
-0.380989 -0.0645434 0.0172011 -4.78021e-020 -2.83989e-017 -1
-0.397955 -0.0645434 0.0172011 -6.00751e-018 -4.94633e-018 -1
-0.414921 -0.0645434 0.0172011 2.82525e-018 -1.59923e-017 -1
-0.431886 -0.0645434 0.0172011 2.82525e-018 1.59923e-017 -1
-0.448853 -0.0645434 0.0172011 -1.61876e-018 6.84757e-018 -1
-0.465818 -0.0645434 0.0172011 1.59167e-017 -6.26637e-018 -1
-0.482785 -0.0645434 0.0172011 -7.29935e-019 -8.1738e-019 -1
-0.49975 -0.0645434 0.0172011 1.32083e-018 1.93116e-017 -1
-0.516717 -0.0645434 0.0172011 -0.00485391 -6.12886e-009 -0.999988
-0.533682 -0.0645434 0.0172011 -0.0409361 -1.06289e-007 -0.999162
-0.550649 -0.0645434 0.0178299 -0.134675 -0.00204374 -0.990888
-0.566986 -0.0645434 0.0203429 -0.335321 2.80219e-007 -0.942104
-0.581439 -0.0645434 0.0266275 -0.600541 1.8654e-007 -0.799594
0.414437 -0.0802741 0.0248857 0.527735 0.0980547 -0.84373
0.399256 -0.0812798 0.0194073 0.260409 0.0469864 -0.964354
0.382478 -0.0815087 0.0175155 0.0964979 0.0119561 -0.995261
0.365512 -0.0815087 0.0172011 0.0265633 0.00754917 -0.999619
0.348547 -0.0815087 0.0172011 0.002427 3.01946e-009 -0.999997
0.33158 -0.0815087 0.0172011 1.28355e-018 1.06728e-018 -1
0.314615 -0.0815087 0.0172011 2.8973e-018 2.72157e-018 -1
0.297648 -0.0815087 0.0172011 6.37517e-019 3.91656e-017 -1
0.280683 -0.0815087 0.0172011 2.8973e-018 2.74355e-018 -1
0.263716 -0.0815087 0.0172011 4.65315e-018 -2.0188e-017 -1
0.246751 -0.0815087 0.0172011 -9.80157e-018 1.58114e-017 -1
0.229785 -0.0815087 0.0172011 6.37517e-019 3.38597e-017 -1
0.212819 -0.0815087 0.0172011 6.37517e-019 -3.89244e-017 -1
0.195853 -0.0815087 0.0172011 4.65316e-018 -2.01798e-017 -1
0.178887 -0.0815087 0.0172011 4.65316e-018 2.01798e-017 -1
0.161921 -0.0815087 0.0172011 1.59361e-018 -4.93659e-018 -1
0.144956 -0.0815087 0.0172011 0 -0 -1
0.127989 -0.0815087 0.0172011 2.89731e-018 -2.73257e-018 -1
0.111024 -0.0815087 0.0172011 5.03141e-018 -1.48697e-018 -1
0.0940573 -0.0815087 0.0172011 -1.86024e-018 -8.17078e-018 -1
0.0770909 -0.0815087 0.0172011 4.27987e-018 3.56904e-019 -1
0.0601255 -0.0815087 0.0172011 7.4915e-018 7.41144e-018 -1
0.0431591 -0.0815087 0.0172011 0 -0 -1
0.0261937 -0.0815087 0.0172011 0 -0 -1
0.00922723 -0.0815087 0.0172011 1.83082e-018 -2.66945e-017 -1
-0.00773813 -0.0815087 0.0172011 -4.61929e-022 -9.06378e-018 -1
-0.0247046 -0.0815087 0.0172011 -1.99201e-019 1.33844e-018 -1
-0.04167 -0.0815087 0.0172011 -2.39114e-019 3.93446e-017 -1
-0.0586364 -0.0815087 0.0172011 1.47233e-018 1.62821e-017 -1
-0.0756018 -0.0815087 0.0172011 6.61645e-019 5.45776e-017 -1
-0.0925682 -0.0815087 0.0172011 -6.37517e-019 -3.65126e-017 -1
-0.109534 -0.0815087 0.0172011 3.53724e-018 3.1236e-017 -1
-0.1265 -0.0815087 0.0172011 -2.89731e-018 2.73256e-018 -1
-0.143465 -0.0815087 0.0172011 8.34803e-019 2.20738e-017 -1
-0.160432 -0.0815087 0.0172011 -2.89731e-018 2.72158e-018 -1
-0.177397 -0.0815087 0.0172011 -2.89731e-018 -2.72707e-018 -1
-0.194364 -0.0815087 0.0172011 -3.06593e-018 -5.00608e-018 -1
-0.211329 -0.0815087 0.0172011 -7.73521e-018 -8.62935e-018 -1
-0.228296 -0.0815087 0.0172011 -1.3336e-018 1.44619e-018 -1
-0.245261 -0.0815087 0.0172011 -3.06593e-018 5.00608e-018 -1
-0.262227 -0.0815087 0.0172011 -2.89731e-018 2.72982e-018 -1
-0.279193 -0.0815087 0.0172011 4.26627e-018 -2.90096e-017 -1
-0.296159 -0.0815087 0.0172011 -4.65316e-018 2.01812e-017 -1
-0.313125 -0.0815087 0.0172011 1.24412e-017 7.7865e-018 -1
-0.330091 -0.0815087 0.0172011 -0 -2.93761e-017 -1
-0.347057 -0.0815087 0.0172011 1.13184e-017 2.23058e-018 -1
-0.364023 -0.0815087 0.0172011 -7.30245e-019 -8.15734e-019 -1
-0.380989 -0.0815087 0.0172011 -3.06593e-018 -4.59263e-018 -1
-0.397955 -0.0815087 0.0172011 -2.46129e-018 -6.56564e-018 -1
-0.414921 -0.0815087 0.0172011 2.82501e-018 1.59952e-017 -1
-0.431886 -0.0815087 0.0172011 2.82501e-018 -1.59952e-017 -1
-0.448853 -0.0815087 0.0172011 -3.06593e-018 -8.02693e-019 -1
-0.465818 -0.0815087 0.0172011 4.8818e-018 1.15282e-017 -1
-0.482785 -0.0815087 0.0172011 -7.3025e-019 8.21234e-019 -1
-0.49975 -0.0815087 0.0172011 1.58917e-017 -2.80171e-018 -1
-0.516717 -0.0815087 0.0172011 -0.00485391 6.0392e-009 -0.999988
-0.533682 -0.0815087 0.0172011 -0.0409361 1.07497e-007 -0.999162
-0.550649 -0.0815087 0.0178299 -0.134675 0.00204374 -0.990888
-0.566986 -0.0815087 0.0203429 -0.335321 -2.83405e-007 -0.942104
-0.581439 -0.0815087 0.0266275 -0.600541 -1.88683e-007 -0.799594
0.430118 -0.114852 0.0297419 0.664362 0.172527 -0.727226
0.415505 -0.097819 0.0235471 0.466569 0.111192 -0.877468
0.399445 -0.0984073 0.0187051 0.228326 0.0592549 -0.97178
0.382478 -0.0984752 0.01728 0.0812233 0.0226135 -0.996439
0.365512 -0.0984752 0.0172011 0.0191081 0.00611134 -0.999799
0.348547 -0.0984752 0.0172011 0.000435865 1.35533e-005 -1
0.33158 -0.0984752 0.0172011 7.44824e-018 8.22878e-020 -1
0.314615 -0.0984752 0.0172011 7.01768e-019 -3.4202e-017 -1
0.297648 -0.0984752 0.0172011 -0 0 -1
0.280683 -0.0984752 0.0172011 7.01767e-019 -3.4224e-017 -1
0.263716 -0.0984752 0.0172011 3.55545e-018 -1.51966e-017 -1
0.246751 -0.0984752 0.0172011 7.44041e-018 -3.71897e-018 -1
0.229785 -0.0984752 0.0172011 6.60603e-019 -3.65289e-017 -1
0.212819 -0.0984752 0.0172011 -4.15407e-017 1.24494e-017 -1
0.195853 -0.0984752 0.0172011 -1.78328e-017 -1.34367e-018 -1
0.178887 -0.0984752 0.0172011 -2.21253e-017 1.19745e-017 -1
0.161921 -0.0984752 0.0172011 3.11467e-017 -1.81998e-018 -1
0.144956 -0.0984752 0.0172011 -1.78388e-017 -2.29308e-018 -1
0.127989 -0.0984752 0.0172011 -1.62559e-017 -1.82091e-018 -1
0.111024 -0.0984752 0.0172011 1.56672e-017 1.83022e-018 -1
0.0940573 -0.0984752 0.0172011 2.52545e-017 -3.90611e-019 -1
0.0770909 -0.0984752 0.0172011 1.84661e-017 1.2998e-017 -1
0.0601255 -0.0984752 0.0172011 -0 -0 -1
0.0431591 -0.0984752 0.0172011 -0 0 -1
0.0261937 -0.0984752 0.0172011 -0 -0 -1
0.00922723 -0.0984752 0.0172011 -1.9187e-018 -3.91447e-019 -1
-0.00773813 -0.0984752 0.0172011 -9.68553e-018 -1.8185e-018 -1
-0.0247046 -0.0984752 0.0172011 2.75979e-017 8.46214e-020 -1
-0.04167 -0.0984752 0.0172011 -9.71018e-018 1.24476e-017 -1
-0.0586364 -0.0984752 0.0172011 3.84614e-018 1.05451e-017 -1
-0.0756018 -0.0984752 0.0172011 1.78347e-017 -2.29502e-018 -1
-0.0925682 -0.0984752 0.0172011 -5.86132e-018 -3.24492e-018 -1
-0.109534 -0.0984752 0.0172011 -1.55746e-017 -1.81915e-018 -1
-0.1265 -0.0984752 0.0172011 2.12151e-018 1.12092e-017 -1
-0.143465 -0.0984752 0.0172011 -8.32293e-018 6.82346e-018 -1
-0.160432 -0.0984752 0.0172011 2.21244e-017 -3.89286e-019 -1
-0.177397 -0.0984752 0.0172011 -7.01767e-019 3.42075e-017 -1
-0.194364 -0.0984752 0.0172011 -7.43826e-018 8.64556e-020 -1
-0.211329 -0.0984752 0.0172011 1.62573e-017 -1.82093e-018 -1
-0.228296 -0.0984752 0.0172011 5.78023e-017 1.026e-017 -1
-0.245261 -0.0984752 0.0172011 -2.52821e-017 -3.92478e-019 -1
-0.262227 -0.0984752 0.0172011 -1.424e-017 1.73946e-017 -1
-0.279193 -0.0984752 0.0172011 1.03906e-017 1.83394e-017 -1
-0.296159 -0.0984752 0.0172011 1.78386e-017 -2.29307e-018 -1
-0.313125 -0.0984752 0.0172011 -2.62916e-017 1.30007e-017 -1
-0.330091 -0.0984752 0.0172011 0 0 -1
-0.347057 -0.0984752 0.0172011 5.16525e-018 -2.04888e-017 -1
-0.364023 -0.0984752 0.0172011 -1.48871e-017 -1.82219e-018 -1
-0.380989 -0.0984752 0.0172011 1.04e-017 -3.24216e-018 -1
-0.397955 -0.0984752 0.0172011 -1.42851e-017 5.00735e-018 -1
-0.414921 -0.0984752 0.0172011 6.28499e-019 1.54818e-017 -1
-0.431886 -0.0984752 0.0172011 6.28499e-019 -1.54818e-017 -1
-0.448853 -0.0984752 0.0172011 -8.933e-018 -9.84531e-018 -1
-0.465818 -0.0984752 0.0172011 5.78007e-017 1.24439e-017 -1
-0.482785 -0.0984752 0.0172011 -4.02484e-018 -4.73032e-018 -1
-0.49975 -0.0984752 0.0172011 2.07796e-017 -1.82508e-018 -1
-0.516717 -0.0984752 0.0172011 -0.00485391 -6.12104e-009 -0.999988
-0.533682 -0.0984752 0.0172011 -0.0409361 -1.04807e-007 -0.999162
-0.550649 -0.0984752 0.0178299 -0.134675 -0.00204374 -0.990888
-0.566986 -0.0984752 0.0203429 -0.335321 2.76312e-007 -0.942104
-0.581439 -0.0984752 0.0266275 -0.600541 1.83927e-007 -0.799594
0.415751 -0.115212 0.0213715 0.391968 0.102103 -0.914295
0.399444 -0.115441 0.0180654 0.169335 0.0433779 -0.984603
0.382478 -0.115441 0.0172011 0.0489961 0.0114811 -0.998733
0.365512 -0.115441 0.0172011 0.00788803 0.00151661 -0.999968
0.348547 -0.115441 0.0172011 0.000353964 7.06431e-005 -1
0.33158 -0.115441 0.0172011 4.23979e-020 3.07795e-017 -1
0.314615 -0.115441 0.0172011 -5.62945e-018 1.50687e-017 -1
0.297648 -0.115441 0.0172011 4.23979e-020 3.08166e-017 -1
0.280683 -0.115441 0.0172011 -3.2634e-018 2.75655e-018 -1
0.263716 -0.115441 0.0172011 -7.1145e-018 -2.05544e-017 -1
0.246751 -0.115441 0.0172011 -3.34998e-018 2.03118e-017 -1
0.229785 -0.115441 0.0172011 0 -0 -1
0.212819 -0.115441 0.0172011 -3.34998e-018 2.03153e-017 -1
0.195853 -0.115441 0.0172011 -1.11836e-019 2.96119e-019 -1
0.178887 -0.115441 0.0172011 3.57077e-018 1.50744e-017 -1
0.161921 -0.115441 0.0172011 -5.68452e-018 9.01219e-019 -1
0.144956 -0.115441 0.0172011 1.00521e-017 2.92388e-019 -1
0.127989 -0.115441 0.0172011 -3.03135e-018 7.44007e-018 -1
0.111024 -0.115441 0.0172011 2.0529e-017 -6.87761e-018 -1
0.0940573 -0.115441 0.0172011 6.50541e-018 1.38208e-017 -1
0.0770909 -0.115441 0.0172011 3.94092e-018 -1.15361e-017 -1
0.0601255 -0.115441 0.0172011 8.12292e-018 -1.94156e-017 -1
0.0431591 -0.115441 0.0172011 4.70047e-019 -5.86456e-018 -1
0.0261937 -0.115441 0.0172011 -0 0 -1
0.00922723 -0.115441 0.0172011 6.78503e-018 2.9483e-019 -1
-0.00773813 -0.115441 0.0172011 4.90726e-019 2.94654e-019 -1
-0.0247046 -0.115441 0.0172011 1.05723e-018 2.75769e-018 -1
-0.04167 -0.115441 0.0172011 -1.75126e-018 1.50785e-017 -1
-0.0586364 -0.115441 0.0172011 3.151e-018 1.01493e-017 -1
-0.0756018 -0.115441 0.0172011 3.15279e-018 1.01517e-017 -1
-0.0925682 -0.115441 0.0172011 -3.91551e-019 -5.86741e-018 -1
-0.109534 -0.115441 0.0172011 -6.63742e-018 -1.90438e-017 -1
-0.1265 -0.115441 0.0172011 9.56711e-018 2.75405e-018 -1
-0.143465 -0.115441 0.0172011 3.34997e-018 -2.03144e-017 -1
-0.160432 -0.115441 0.0172011 -6.78999e-018 1.01457e-017 -1
-0.177397 -0.115441 0.0172011 3.03135e-018 6.47538e-018 -1
-0.194364 -0.115441 0.0172011 -4.23978e-020 -3.08113e-017 -1
-0.211329 -0.115441 0.0172011 -5.83691e-018 7.50215e-018 -1
-0.228296 -0.115441 0.0172011 3.03135e-018 -8.8182e-018 -1
-0.245261 -0.115441 0.0172011 3.34997e-018 -2.03091e-017 -1
-0.262227 -0.115441 0.0172011 3.03135e-018 -7.09554e-018 -1
-0.279193 -0.115441 0.0172011 3.26343e-018 2.76116e-018 -1
-0.296159 -0.115441 0.0172011 3.26272e-018 2.75656e-018 -1
-0.313125 -0.115441 0.0172011 -5.45952e-018 -3.17882e-018 -1
-0.330091 -0.115441 0.0172011 0 0 -1
-0.347057 -0.115441 0.0172011 -1.47753e-017 -7.79903e-018 -1
-0.364023 -0.115441 0.0172011 6.48964e-018 1.14996e-018 -1
-0.380989 -0.115441 0.0172011 3.30757e-018 -1.05154e-017 -1
-0.397955 -0.115441 0.0172011 3.30757e-018 1.05181e-017 -1
-0.414921 -0.115441 0.0172011 3.53015e-018 -3.98055e-018 -1
-0.431886 -0.115441 0.0172011 -1.07186e-017 7.63295e-018 -1
-0.448853 -0.115441 0.0172011 -4.23979e-020 -3.08219e-017 -1
-0.465818 -0.115441 0.0172011 2.36949e-018 -2.00495e-017 -1
-0.482785 -0.115441 0.0172011 7.81151e-018 -9.49589e-019 -1
-0.49975 -0.115441 0.0172011 -5.86456e-018 2.76778e-017 -1
-0.516717 -0.115441 0.0172011 -0.00485391 6.32687e-009 -0.999988
-0.533682 -0.115441 0.0172011 -0.0409361 1.00129e-007 -0.999162
-0.550649 -0.115441 0.0178299 -0.13355 -0.00594506 -0.991024
-0.566986 -0.115441 0.0203429 -0.335363 -0.000145802 -0.942089
-0.581439 -0.115441 0.0266275 -0.600588 -0.000708919 -0.799559
0.430439 -0.131438 0.0262386 0.576476 0.151212 -0.803001
0.415877 -0.132151 0.0201665 0.328329 0.0911618 -0.940154
0.399444 -0.132407 0.017751 0.139175 0.0379698 -0.98954
0.382478 -0.132407 0.0172011 0.0396212 0.0114646 -0.999149
0.365512 -0.132407 0.0172011 0.00449342 0.000338074 -0.99999
0.348547 -0.132407 0.0172011 4.27111e-020 3.07978e-017 -1
0.33158 -0.132407 0.0172011 -1.17522e-018 -3.57249e-018 -1
0.314615 -0.132407 0.0172011 -5.81733e-018 3.06286e-018 -1
0.297648 -0.132407 0.0172011 4.27111e-020 -3.08155e-017 -1
0.280683 -0.132407 0.0172011 -6.66883e-018 5.52231e-018 -1
0.263716 -0.132407 0.0172011 -7.12953e-018 2.31546e-017 -1
0.246751 -0.132407 0.0172011 -4.87962e-018 6.84685e-018 -1
0.229785 -0.132407 0.0172011 -0 0 -1
0.212819 -0.132407 0.0172011 -7.98554e-018 -1.02294e-017 -1
0.195853 -0.132407 0.0172011 -4.7223e-018 -3.93435e-018 -1
0.178887 -0.132407 0.0172011 -1.32076e-017 9.4569e-018 -1
0.161921 -0.132407 0.0172011 -4.57742e-018 2.31831e-018 -1
0.144956 -0.132407 0.0172011 3.15973e-018 1.7843e-017 -1
0.127989 -0.132407 0.0172011 1.89548e-018 -2.30678e-017 -1
0.111024 -0.132407 0.0172011 -8.21842e-018 5.74067e-018 -1
0.0940573 -0.132407 0.0172011 2.1378e-017 3.80149e-017 -1
0.0770909 -0.132407 0.0172011 -1.50697e-017 -1.00512e-017 -1
0.0601255 -0.132407 0.0172011 0 -0 -1
0.0431591 -0.132407 0.0172011 5.74279e-018 9.67642e-018 -1
0.0261937 -0.132407 0.0172011 -6.8381e-018 1.7831e-017 -1
0.00922723 -0.132407 0.0172011 -4.37362e-018 -2.19017e-018 -1
-0.00773813 -0.132407 0.0172011 5.32433e-018 2.49719e-017 -1
-0.0247046 -0.132407 0.0172011 -6.61721e-021 -3.35302e-017 -1
-0.04167 -0.132407 0.0172011 1.35383e-018 -1.21648e-017 -1
-0.0586364 -0.132407 0.0172011 -2.7678e-018 1.39108e-017 -1
-0.0756018 -0.132407 0.0172011 -2.7678e-018 -1.40314e-017 -1
-0.0925682 -0.132407 0.0172011 -1.02049e-018 -5.73787e-018 -1
-0.109534 -0.132407 0.0172011 -2.7678e-018 -1.3618e-017 -1
-0.1265 -0.132407 0.0172011 -8.52538e-018 5.56629e-018 -1
-0.143465 -0.132407 0.0172011 -1.39383e-018 8.85175e-018 -1
-0.160432 -0.132407 0.0172011 7.4627e-018 6.22665e-018 -1
-0.177397 -0.132407 0.0172011 7.46269e-018 -8.3628e-018 -1
-0.194364 -0.132407 0.0172011 -4.27111e-020 3.08102e-017 -1
-0.211329 -0.132407 0.0172011 -2.19319e-017 1.57771e-017 -1
-0.228296 -0.132407 0.0172011 -3.79204e-018 1.00834e-017 -1
-0.245261 -0.132407 0.0172011 1.34059e-018 5.48912e-017 -1
-0.262227 -0.132407 0.0172011 7.46269e-018 8.98297e-018 -1
-0.279193 -0.132407 0.0172011 9.63246e-018 1.78344e-017 -1
-0.296159 -0.132407 0.0172011 6.59331e-018 7.98269e-018 -1
-0.313125 -0.132407 0.0172011 1.31197e-018 -4.47162e-018 -1
-0.330091 -0.132407 0.0172011 -1.14868e-032 2.22192e-018 -1
-0.347057 -0.132407 0.0172011 -3.44835e-018 -7.79215e-019 -1
-0.364023 -0.132407 0.0172011 1.48046e-019 2.55995e-018 -1
-0.380989 -0.132407 0.0172011 1.29789e-018 -2.40677e-017 -1
-0.397955 -0.132407 0.0172011 -4.86096e-018 6.02203e-018 -1
-0.414921 -0.132407 0.0172011 -3.8587e-018 9.83353e-018 -1
-0.431886 -0.132407 0.0172011 -1.16852e-019 7.61582e-019 -1
-0.448853 -0.132407 0.0172011 -4.27111e-020 3.08208e-017 -1
-0.465818 -0.132407 0.0172011 -3.79511e-018 4.18106e-018 -1
-0.482785 -0.132407 0.0172011 9.73727e-018 -7.41867e-018 -1
-0.49975 -0.132407 0.0172011 -4.86096e-018 6.16497e-018 -1
-0.516717 -0.132407 0.0172011 -0.00485391 -6.17404e-009 -0.999988
-0.533682 -0.132407 0.0172011 -0.0409361 -1.00284e-007 -0.999162
-0.550649 -0.132407 0.0178299 -0.133805 0.005542 -0.990992
-0.566986 -0.132407 0.0203429 -0.335263 -0.00157833 -0.942123
-0.581439 -0.132407 0.0266275 -0.599473 -0.00460313 -0.800382
0.431376 -0.148057 0.0249098 0.521587 0.146773 -0.840479
0.416222 -0.149143 0.0194073 0.26974 0.0762932 -0.959906
0.399444 -0.149372 0.0175155 0.0977557 0.0263767 -0.994861
0.382478 -0.149372 0.0172011 0.0247831 0.00751257 -0.999665
0.365512 -0.149372 0.0172011 0.00242683 3.03129e-009 -0.999997
0.348547 -0.149372 0.0172011 4.25009e-020 -3.07938e-017 -1
0.33158 -0.149372 0.0172011 -9.80393e-018 1.66257e-017 -1
0.314615 -0.149372 0.0172011 7.89513e-020 -5.57934e-018 -1
0.297648 -0.149372 0.0172011 1.13448e-017 5.7377e-018 -1
0.280683 -0.149372 0.0172011 1.01171e-017 7.68103e-018 -1
0.263716 -0.149372 0.0172011 3.53309e-018 6.89853e-018 -1
0.246751 -0.149372 0.0172011 -9.79998e-018 -2.02626e-017 -1
0.229785 -0.149372 0.0172011 0 -0 -1
0.212819 -0.149372 0.0172011 1.55301e-018 1.06016e-017 -1
0.195853 -0.149372 0.0172011 2.41218e-018 -3.20499e-017 -1
0.178887 -0.149372 0.0172011 -1.3407e-018 5.4902e-017 -1
0.161921 -0.149372 0.0172011 -6.08966e-018 3.88876e-017 -1
0.144956 -0.149372 0.0172011 -6.57159e-018 -5.57389e-018 -1
0.127989 -0.149372 0.0172011 8.53368e-018 3.51142e-018 -1
0.111024 -0.149372 0.0172011 -8.60934e-018 -8.56507e-018 -1
0.0940573 -0.149372 0.0172011 1.31951e-018 1.78404e-017 -1
0.0770909 -0.149372 0.0172011 5.6737e-018 1.69035e-019 -1
0.0601255 -0.149372 0.0172011 -1.15619e-017 -1.87375e-018 -1
0.0431591 -0.149372 0.0172011 1.7513e-018 1.50784e-017 -1
0.0261937 -0.149372 0.0172011 7.53641e-018 2.3701e-017 -1
0.00922723 -0.149372 0.0172011 -1.20809e-017 -2.1584e-017 -1
-0.00773813 -0.149372 0.0172011 2.50514e-018 -1.69518e-017 -1
-0.0247046 -0.149372 0.0172011 -5.1227e-018 2.94346e-019 -1
-0.04167 -0.149372 0.0172011 -4.79061e-018 5.51818e-018 -1
-0.0586364 -0.149372 0.0172011 8.0542e-018 -4.33923e-018 -1
-0.0756018 -0.149372 0.0172011 -1.32032e-017 2.7599e-018 -1
-0.0925682 -0.149372 0.0172011 6.59264e-018 7.97933e-018 -1
-0.109534 -0.149372 0.0172011 4.63167e-018 -5.88812e-018 -1
-0.1265 -0.149372 0.0172011 -6.78879e-018 3.04898e-018 -1
-0.143465 -0.149372 0.0172011 8.59165e-019 1.86748e-017 -1
-0.160432 -0.149372 0.0172011 -2.79892e-020 -3.34181e-017 -1
-0.177397 -0.149372 0.0172011 -8.53368e-018 2.54671e-018 -1
-0.194364 -0.149372 0.0172011 -4.4287e-018 -5.80898e-018 -1
-0.211329 -0.149372 0.0172011 -1.94611e-017 9.59847e-018 -1
-0.228296 -0.149372 0.0172011 -1.11902e-017 -1.70342e-017 -1
-0.245261 -0.149372 0.0172011 1.3407e-018 -5.48932e-017 -1
-0.262227 -0.149372 0.0172011 -2.79892e-020 -3.34071e-017 -1
-0.279193 -0.149372 0.0172011 6.44574e-018 -6.79794e-018 -1
-0.296159 -0.149372 0.0172011 -6.72245e-018 1.75394e-017 -1
-0.313125 -0.149372 0.0172011 -2.62905e-017 -2.531e-017 -1
-0.330091 -0.149372 0.0172011 0 0 -1
-0.347057 -0.149372 0.0172011 5.1641e-018 8.17885e-018 -1
-0.364023 -0.149372 0.0172011 2.82634e-018 -1.60071e-017 -1
-0.380989 -0.149372 0.0172011 1.38789e-017 -6.93459e-018 -1
-0.397955 -0.149372 0.0172011 -1.27258e-018 8.3758e-019 -1
-0.414921 -0.149372 0.0172011 2.82634e-018 1.59865e-017 -1
-0.431886 -0.149372 0.0172011 2.82634e-018 -1.59865e-017 -1
-0.448853 -0.149372 0.0172011 -3.03344e-018 3.72939e-018 -1
-0.465818 -0.149372 0.0172011 -7.43703e-018 -1.30444e-017 -1
-0.482785 -0.149372 0.0172011 4.99381e-020 -1.2357e-017 -1
-0.49975 -0.149372 0.0172011 1.06834e-017 1.5538e-017 -1
-0.516717 -0.149372 0.0172011 -0.00485391 6.06333e-009 -0.999988
-0.533682 -0.149372 0.0172011 -0.0412945 -0.000353001 -0.999147
-0.550649 -0.149372 0.0178299 -0.137389 -0.0072788 -0.99049
-0.566986 -0.149372 0.0203429 -0.339498 -0.00821301 -0.940571
-0.581439 -0.14944 0.0266724 -0.601048 -0.0149616 -0.799073
0.448238 -0.181702 0.0285325 0.604658 0.250937 -0.755923
0.43257 -0.165441 0.0232064 0.436498 0.147157 -0.887589
0.41641 -0.166271 0.0186263 0.212576 0.0737429 -0.974358
0.399444 -0.166339 0.01728 0.0763401 0.0278036 -0.996694
0.382478 -0.166339 0.0172011 0.0187056 0.00617305 -0.999806
0.365512 -0.166339 0.0172011 0.000402247 6.15514e-005 -1
0.348547 -0.166339 0.0172011 -9.62292e-019 -3.03459e-018 -1
0.33158 -0.166339 0.0172011 -9.62305e-019 3.05401e-018 -1
0.314615 -0.166339 0.0172011 -5.77191e-018 -1.04868e-017 -1
0.297648 -0.166339 0.0172011 -9.62301e-019 3.01695e-018 -1
0.280683 -0.166339 0.0172011 6.78648e-018 1.01556e-017 -1
0.263716 -0.166339 0.0172011 -3.16975e-019 -4.35109e-017 -1
0.246751 -0.166339 0.0172011 -7.43034e-018 1.47787e-017 -1
0.229785 -0.166339 0.0172011 -0 0 -1
0.212819 -0.166339 0.0172011 -3.35005e-018 -2.03142e-017 -1
0.195853 -0.166339 0.0172011 6.32102e-018 -1.90862e-017 -1
0.178887 -0.166339 0.0172011 1.41461e-018 6.54132e-018 -1
0.161921 -0.166339 0.0172011 -4.72241e-018 -3.93698e-018 -1
0.144956 -0.166339 0.0172011 -9.45665e-018 3.05791e-018 -1
0.127989 -0.166339 0.0172011 -7.43034e-018 -1.55367e-017 -1
0.111024 -0.166339 0.0172011 1.53124e-017 -7.9528e-021 -1
0.0940573 -0.166339 0.0172011 2.78654e-018 8.94657e-019 -1
0.0770909 -0.166339 0.0172011 7.82537e-018 2.66696e-021 -1
0.0601255 -0.166339 0.0172011 5.08116e-018 2.75977e-018 -1
0.0431591 -0.166339 0.0172011 1.28178e-018 -5.86442e-018 -1
0.0261937 -0.166339 0.0172011 0 -0 -1
0.00922723 -0.166339 0.0172011 -2.78426e-018 -9.37135e-019 -1
-0.00773813 -0.166339 0.0172011 2.0062e-019 2.75853e-018 -1
-0.0247046 -0.166339 0.0172011 6.95306e-018 -1.32546e-017 -1
-0.04167 -0.166339 0.0172011 4.90329e-018 1.75409e-017 -1
-0.0586364 -0.166339 0.0172011 -1.32032e-017 2.76023e-018 -1
-0.0756018 -0.166339 0.0172011 1.10845e-019 2.94249e-019 -1
-0.0925682 -0.166339 0.0172011 8.51543e-020 2.37051e-017 -1
-0.109534 -0.166339 0.0172011 3.9413e-018 7.21442e-018 -1
-0.1265 -0.166339 0.0172011 -6.78707e-018 1.01555e-017 -1
-0.143465 -0.166339 0.0172011 -4.40726e-018 9.59777e-018 -1
-0.160432 -0.166339 0.0172011 9.62304e-019 -3.04165e-018 -1
-0.177397 -0.166339 0.0172011 7.43034e-018 -1.4572e-017 -1
-0.194364 -0.166339 0.0172011 9.623e-019 -3.02224e-018 -1
-0.211329 -0.166339 0.0172011 9.62302e-019 3.02224e-018 -1
-0.228296 -0.166339 0.0172011 -8.55774e-018 1.01906e-017 -1
-0.245261 -0.166339 0.0172011 3.35005e-018 2.03089e-017 -1
-0.262227 -0.166339 0.0172011 -5.01261e-018 3.05324e-018 -1
-0.279193 -0.166339 0.0172011 2.83302e-018 -3.40306e-018 -1
-0.296159 -0.166339 0.0172011 6.30448e-018 -1.94124e-017 -1
-0.313125 -0.166339 0.0172011 -2.31383e-017 1.06202e-020 -1
-0.330091 -0.166339 0.0172011 -0 -4.11422e-017 -1
-0.347057 -0.166339 0.0172011 -2.26489e-017 -1.59421e-020 -1
-0.364023 -0.166339 0.0172011 6.35532e-018 -4.85433e-018 -1
-0.380989 -0.166339 0.0172011 -5.82187e-018 -3.00881e-018 -1
-0.397955 -0.166339 0.0172011 -4.85957e-018 6.01693e-018 -1
-0.414921 -0.166339 0.0172011 -1.51769e-017 -7.15544e-018 -1
-0.431886 -0.166339 0.0172011 6.43638e-018 2.12095e-018 -1
-0.448853 -0.166339 0.0172011 -0 0 -1
-0.465818 -0.166339 0.0172011 9.623e-019 3.01518e-018 -1
-0.482785 -0.166339 0.0172011 3.60783e-018 -7.86052e-018 -1
-0.49975 -0.166339 0.0172011 -4.85958e-018 6.15458e-018 -1
-0.516717 -0.166339 0.0172011 -0.00485391 -6.50618e-009 -0.999988
-0.533682 -0.166339 0.0172011 -0.0434323 -0.00220562 -0.999054
-0.550649 -0.166339 0.0178299 -0.141328 -0.00757096 -0.989934
-0.566986 -0.166474 0.0204327 -0.354388 -0.0231081 -0.934813
-0.581483 -0.166878 0.0271796 -0.614049 -0.0397553 -0.788266
0.433188 -0.182942 0.0205608 0.33517 0.136569 -0.932207
0.41641 -0.183304 0.017751 0.14 0.0548715 -0.98863
0.399444 -0.183304 0.0172011 0.0360579 0.0136085 -0.999257
0.382478 -0.183304 0.0172011 0.00437948 0.00184508 -0.999989
0.365512 -0.183304 0.0172011 0.000253576 0.000169814 -1
0.348547 -0.183304 0.0172011 -3.45296e-019 4.66321e-018 -1
0.33158 -0.183304 0.0172011 -3.39045e-019 -1.50955e-018 -1
0.314615 -0.183304 0.0172011 -6.09235e-018 -2.91247e-018 -1
0.297648 -0.183304 0.0172011 -0 0 -1
0.280683 -0.183304 0.0172011 -3.46623e-019 4.66294e-018 -1
0.263716 -0.183304 0.0172011 -3.40837e-019 -1.50937e-018 -1
0.246751 -0.183304 0.0172011 -5.75141e-018 -1.415e-017 -1
0.229785 -0.183304 0.0172011 -1.09773e-018 7.60043e-018 -1
0.212819 -0.183304 0.0172011 -6.47384e-018 1.60988e-017 -1
0.195853 -0.183304 0.0172011 7.60736e-019 -1.3676e-017 -1
0.178887 -0.183304 0.0172011 -6.09406e-018 -2.91231e-018 -1
0.161921 -0.183304 0.0172011 -3.40477e-019 -1.50959e-018 -1
0.144956 -0.183304 0.0172011 1.41475e-017 -3.55756e-019 -1
0.127989 -0.183304 0.0172011 7.60392e-019 -1.36759e-017 -1
0.111024 -0.183304 0.0172011 4.52686e-021 2.62356e-017 -1
0.0940573 -0.183304 0.0172011 -1.30146e-017 -1.84652e-017 -1
0.0770909 -0.183304 0.0172011 2.26343e-021 -1.31168e-017 -1
0.0601255 -0.183304 0.0172011 0 -0 -1
0.0431591 -0.183304 0.0172011 -1.43099e-017 -5.06308e-018 -1
0.0261937 -0.183304 0.0172011 0 -0 -1
0.00922723 -0.183304 0.0172011 -1.08715e-017 1.48726e-017 -1
-0.00773813 -0.183304 0.0172011 -9.57777e-018 -2.09161e-017 -1
-0.0247046 -0.183304 0.0172011 -7.46279e-019 -2.91118e-018 -1
-0.04167 -0.183304 0.0172011 -1.41349e-017 6.39722e-018 -1
-0.0586364 -0.183304 0.0172011 9.84782e-018 -3.74313e-018 -1
