ply
format ascii 1.0
element vertex 823
property float x
property float y
property float z
property float nx
property float ny
property float nz
end_header
-0.00220461 -0.16069 0.129109 0.0795611 -0.970897 -0.225896
-0.0193046 -0.160507 0.122523 0.0733186 -0.973452 -0.216833
-0.549106 -0.147414 0.137631 -0.836556 -0.498702 0.22687
-0.032741 -0.164299 0.131649 0.0732779 -0.973565 -0.216336
-0.0496485 -0.164308 0.125869 0.0727784 -0.972885 -0.21954
-0.0678359 -0.165664 0.125364 0.0703742 -0.974402 -0.213514
-0.0851902 -0.168561 0.130831 0.0584677 -0.982716 -0.175645
-0.104329 -0.168587 0.125342 0.0581361 -0.983586 -0.170816
-0.124306 -0.16973 0.126309 0.0464364 -0.989444 -0.137276
-0.145235 -0.170768 0.129173 0.0312503 -0.994779 -0.0971456
-0.163885 -0.170851 0.123552 0.0307785 -0.995173 -0.0931847
-0.182537 -0.171389 0.126986 0.0187054 -0.998043 -0.059674
-0.202519 -0.171563 0.128478 0.00903071 -0.999268 -0.0371671
-0.221564 -0.171506 0.126409 0.00645589 -0.999448 -0.0326018
-0.241202 -0.171508 0.125412 0.00567229 -0.999645 -0.0260471
-0.25953 -0.171517 0.126634 0.00565761 -0.999845 -0.0166715
-0.277513 -0.17151 0.126726 0.00359011 -0.999948 -0.00957637
-0.295752 -0.171511 0.126435 0.00133384 -0.999987 -0.00501194
-0.31391 -0.17151 0.126709 0.00134471 -0.999997 -0.00205946
-0.331525 -0.17151 0.126821 0.000449824 -1 -0.000536807
-0.347705 -0.17151 0.124424 3.82764e-006 -1 -1.44171e-005
-0.361075 -0.17151 0.129176 -3.33857e-006 -1 -2.23941e-005
-0.377146 -0.17151 0.127552 -2.10734e-005 -1 -4.87429e-005
-0.394702 -0.17151 0.127516 0.000129456 -1 0.000127661
-0.412783 -0.17151 0.127559 0.000179743 -1 0.000383783
-0.431611 -0.17151 0.127649 -2.98318e-005 -1 0.000578886
-0.450472 -0.17151 0.126465 -6.30422e-005 -1 0.000751592
-0.47128 -0.17151 0.127996 -0.00942241 -0.999954 0.00190691
-0.490725 -0.171531 0.122288 -0.0531362 -0.998496 0.0134669
-0.508279 -0.170698 0.126632 -0.162437 -0.98609 0.0352297
-0.524909 -0.16747 0.129538 -0.374374 -0.922695 0.0920808
-0.539203 -0.159364 0.133746 -0.636252 -0.753833 0.164069
0.405156 0.869512 0.0900522 0.24571 0.900272 0.359356
0.388089 0.870672 0.0907205 0.0343522 0.873739 0.48518
0.366444 0.871934 0.0844415 -0.169005 0.792555 0.585913
0.435097 0.848585 0.108949 0.512172 0.755913 0.407769
0.435667 0.853433 0.0908585 0.61006 0.778295 0.148606
0.343776 0.86374 0.0816181 -0.410057 0.576823 0.70649
0.341578 0.846137 0.0910099 -0.541585 0.372656 0.753534
0.324925 0.846835 0.0769412 -0.588788 0.311208 0.745974
0.457648 0.822964 0.107729 0.845367 0.480302 0.233805
0.325088 0.829116 0.0820238 -0.643197 0.174183 0.745626
0.326176 0.811443 0.0856637 -0.672577 0.093218 0.734132
0.469268 0.790007 0.108083 0.968638 0.225883 0.103521
0.328296 0.793719 0.088933 -0.68656 0.0503348 0.725329
0.471251 0.772257 0.11295 0.977021 0.151183 0.150246
0.332827 0.775537 0.0940824 -0.692688 0.0266807 0.720744
0.473263 0.75581 0.108246 0.995493 0.0791822 0.0521992
0.323184 0.757482 0.0846392 -0.70299 0.00684033 0.711167
0.473591 0.738975 0.107042 0.999535 0.0302932 0.0034512
0.327364 0.739422 0.0887765 -0.703896 0.00263863 0.710298
0.473351 0.72097 0.102271 0.997638 0.00587165 -0.0684334
0.328795 0.72114 0.0902005 -0.705234 0.000867874 0.708974
0.473523 0.703378 0.111976 0.997945 -0.00326146 0.063991
0.333001 0.702809 0.0944089 -0.704673 0.000431961 0.709532
0.473585 0.685752 0.107063 0.999921 -0.0124966 -0.00120851
0.323095 0.684566 0.084493 -0.706923 -2.83957e-006 0.70729
0.473337 0.668128 0.104263 0.998969 -0.0348607 -0.0290706
0.327271 0.666017 0.0886745 -0.706062 -0.00490757 0.708133
0.472141 0.649991 0.0998847 0.994961 -0.0699888 -0.0717975
0.32866 0.648022 0.0900553 -0.704587 -0.0226034 0.709258
0.47051 0.631429 0.110542 0.981551 -0.14195 0.128096
0.330232 0.630194 0.0909512 -0.70524 -0.0695782 0.705546
0.468897 0.613575 0.104374 0.979677 -0.185807 0.0755528
0.332691 0.612533 0.0914114 -0.708258 -0.149082 0.690033
0.465197 0.59614 0.0991042 0.975262 -0.220657 0.0131838
0.459237 0.577497 0.108493 0.917624 -0.284767 0.277261
0.35809 0.574679 0.106271 -0.69719 -0.295507 0.653147
0.45547 0.560748 0.100786 0.945197 -0.242703 0.2184
0.447508 0.541571 0.107811 0.810881 -0.264206 0.522175
0.447135 0.524127 0.100672 0.866115 -0.191347 0.46177
0.374866 0.517396 0.09986 -0.768684 -0.230242 0.596753
0.436733 0.505837 0.108655 0.622049 -0.205538 0.755519
0.371927 0.501196 0.0886797 -0.882935 -0.166826 0.438857
0.437766 0.488749 0.101723 0.674674 -0.151117 0.722481
0.377532 0.4835 0.0935954 -0.803904 -0.112329 0.584055
0.432896 0.468907 0.10191 0.555144 -0.118719 0.823238
0.373728 0.465578 0.0857255 -0.889815 -0.0535616 0.453168
0.435 0.447685 0.0989796 0.57507 -0.0447579 0.816879
0.374351 0.446691 0.0866378 -0.857177 -0.0297091 0.514165
0.434898 0.426869 0.098785 0.550412 -0.0132364 0.834788
0.375537 0.427068 0.0873473 -0.839542 -0.0223961 0.542833
0.434795 0.407343 0.0988612 0.550279 -0.00264696 0.834977
0.375412 0.407032 0.086643 -0.834931 -0.012543 0.550211
0.43479 0.388507 0.0988643 0.54907 0.000128115 0.835776
0.375526 0.388378 0.0868849 -0.835227 -0.000976985 0.549904
0.434812 0.370052 0.0988499 0.549532 7.8347e-005 0.835473
0.375533 0.370019 0.0868932 -0.835153 0.000270307 0.550018
0.434816 0.351757 0.0988478 0.54984 7.87498e-005 0.83527
0.375527 0.351752 0.0868829 -0.835135 6.29409e-005 0.550045
0.434817 0.333516 0.0988468 0.54995 9.59699e-005 0.835197
0.375525 0.333514 0.0868798 -0.835152 7.1154e-005 0.55002
0.434826 0.315305 0.0988417 0.550232 0.000133844 0.835012
0.375529 0.31528 0.086886 -0.835024 8.96408e-005 0.550213
0.43485 0.297164 0.0988262 0.551089 0.00029256 0.834447
0.375537 0.297044 0.0868993 -0.834772 0.000151607 0.550596
0.434834 0.279175 0.0988396 0.550963 0.000875055 0.834529
0.375533 0.278817 0.0868952 -0.834564 -0.000890305 0.550911
0.434812 0.261425 0.0988674 0.549639 -0.000214975 0.835402
0.375534 0.260627 0.0868726 -0.833689 -0.00811184 0.552175
0.435152 0.24396 0.0987068 0.553375 -0.00713328 0.832902
0.375708 0.242675 0.0868695 -0.828973 -0.0291463 0.558528
0.435914 0.226688 0.0980128 0.566637 -0.018337 0.823763
0.376353 0.225198 0.0864329 -0.824241 -0.0658611 0.562396
0.437984 0.209648 0.096218 0.608755 -0.0169007 0.793178
0.390799 0.2123 0.0978079 -0.505121 -0.0984126 0.857419
0.433048 0.191536 0.0990352 0.442711 -0.0285654 0.896209
0.382605 0.192705 0.0875686 -0.723441 -0.110372 0.681507
0.434696 0.172236 0.0982094 0.464322 -0.0126769 0.885576
0.386029 0.174696 0.0875738 -0.700555 -0.0758775 0.709553
0.43366 0.155239 0.0986584 0.433241 -0.0144346 0.901163
0.387178 0.156365 0.0875017 -0.695317 -0.0387305 0.717659
0.435659 0.139708 0.0972961 0.50429 -0.0311771 0.862971
0.387233 0.137212 0.0871207 -0.699312 -0.0287403 0.714239
0.436152 0.122378 0.0958195 0.515516 -0.0797962 0.853156
0.38801 0.118331 0.0872278 -0.682449 -0.0408339 0.729791
0.435772 0.103595 0.0937241 0.504074 -0.119313 0.855379
0.421189 0.108605 0.0998312 0.100676 -0.125333 0.986993
0.405885 0.0996424 0.0958669 -0.239183 -0.131866 0.961979
0.391057 0.0995302 0.0879198 -0.599505 -0.0705575 0.797255
0.433562 0.0849982 0.0909234 0.443374 -0.119557 0.888327
0.419201 0.0899376 0.0951132 0.0749436 -0.141657 0.987075
0.400845 0.0823313 0.0913425 -0.340188 -0.115837 0.933196
0.38469 0.0806097 0.0820021 -0.697478 -0.0552076 0.714476
0.432341 0.0665194 0.0889577 0.38507 -0.0778826 0.919595
0.416216 0.0717163 0.0919242 0.0152795 -0.120126 0.992641
0.398857 0.0629505 0.088448 -0.364757 -0.0753168 0.928051
0.384203 0.0623523 0.0802949 -0.688545 -0.0398257 0.7241
0.433108 0.0474692 0.0880402 0.357611 -0.0144736 0.933758
0.416552 0.052838 0.0900636 0.00491315 -0.0630688 0.997997
0.401704 0.0426688 0.0877004 -0.299812 -0.0281063 0.953584
0.386509 0.0458484 0.0811918 -0.62492 -0.0280554 0.780184
0.434147 0.0280132 0.0876212 0.322428 0.0708404 0.943939
0.418168 0.0325645 0.0892831 0.0141449 0.0130852 0.999814
0.402608 0.0234898 0.0875089 -0.280729 0.0450059 0.958731
0.387328 0.0280719 0.0810693 -0.595979 0.0343661 0.802264
0.436396 0.00903609 0.0883203 0.300691 0.20174 0.93214
0.418277 0.010907 0.0899174 -0.0106554 0.138002 0.990375
0.401304 0.00549293 0.0882987 -0.307656 0.169284 0.936318
0.386882 0.00949533 0.0818405 -0.577614 0.154142 0.801624
0.442301 -0.00996268 0.0912251 0.287936 0.381563 0.878352
0.423015 -0.00870131 0.0932113 0.021931 0.325019 0.945453
0.404131 -0.0105012 0.0920509 -0.232035 0.334016 0.913561
0.386378 -0.0104003 0.0853023 -0.488477 0.357239 0.796097
0.478219 -0.0290963 0.0825108 0.580302 0.620085 0.527962
0.464722 -0.0310095 0.0952779 0.421484 0.595982 0.683488
0.448586 -0.0278298 0.098992 0.286958 0.568294 0.771166
0.429732 -0.0262729 0.1007 0.0684189 0.529882 0.845307
0.409427 -0.0265829 0.0997571 -0.136172 0.532546 0.835375
0.387377 -0.0286803 0.094761 -0.356506 0.573543 0.737531
0.488249 -0.0547654 0.10465 0.511056 0.601901 0.613626
0.491891 -0.0441112 0.087095 0.572489 0.662991 0.48239
0.358967 -0.0526659 0.111117 -0.212301 0.908923 0.358869
0.366992 -0.0398916 0.0931526 -0.383708 0.760365 0.524036
0.338844 -0.0566631 0.110183 -0.150231 0.954678 0.256944
0.347317 -0.0492895 0.0937612 -0.287604 0.887259 0.360631
0.321738 -0.0593784 0.112936 -0.0857055 0.98083 0.175005
0.305948 -0.0594721 0.109097 -0.0621885 0.986258 0.153063
0.28862 -0.0600498 0.108452 -0.0463118 0.989985 0.133361
0.271294 -0.0609466 0.110238 -0.0314761 0.99384 0.106263
0.253057 -0.0613863 0.11011 -0.019379 0.995578 0.0919146
0.235709 -0.0614409 0.108938 -0.00998643 0.996165 0.0869256
0.217931 -0.0614862 0.108656 -0.0114794 0.996897 0.0778816
0.199975 -0.0615778 0.108705 -0.0143947 0.997759 0.0653412
0.182058 -0.0618641 0.109599 -0.0130319 0.998736 0.0485478
0.163836 -0.0621112 0.109929 -0.00865875 0.999296 0.0365052
0.145596 -0.0621771 0.109408 -0.00566549 0.999506 0.0309269
0.127732 -0.0621668 0.108959 -0.00368211 0.999679 0.0250653
0.109837 -0.0621689 0.109218 -0.0036235 0.999839 0.017573
0.0917431 -0.0621668 0.10949 -0.00293614 0.999941 0.0104713
0.0735094 -0.0621637 0.109355 -0.000959317 0.999972 0.00747949
0.0553312 -0.0621627 0.109071 -0.000362433 0.999984 0.00556384
0.0372674 -0.0621627 0.109011 -0.000550953 0.999995 0.00317704
0.0191542 -0.0621627 0.109107 -0.000255326 0.999999 0.00149379
0.000961679 -0.0621627 0.109083 -6.7947e-005 1 0.0001169
-0.0172453 -0.0621627 0.10894 2.60759e-005 1 -8.23513e-005
-0.0354151 -0.0621627 0.10883 -3.64898e-006 1 -5.2204e-005
-0.0535654 -0.0621627 0.108792 4.87799e-006 1 -3.89323e-005
-0.0717384 -0.0621627 0.108755 1.1204e-005 1 -2.73343e-005
-0.0899144 -0.0621627 0.108685 1.16972e-005 1 -3.81827e-005
-0.108083 -0.0621627 0.108583 2.04864e-005 1 -8.21832e-005
-0.126247 -0.0621627 0.108468 -6.69122e-005 1 0.000133654
-0.144385 -0.0621627 0.10843 -0.00022023 0.999999 0.00148669
-0.162464 -0.0621627 0.108413 -0.000909534 0.999994 0.0034065
-0.180592 -0.0621627 0.108242 -0.00132007 0.999976 0.00677843
-0.198735 -0.0621596 0.108096 -0.00317807 0.999939 0.0105796
-0.216711 -0.0621555 0.108288 -0.00485882 0.999829 0.0178365
-0.234528 -0.0621503 0.108191 -0.00710302 0.999623 0.0265163
-0.252729 -0.0622173 0.107727 -0.00953609 0.999338 0.0351179
-0.270897 -0.0624654 0.108039 -0.0139273 0.998705 0.0489303
-0.288668 -0.0627476 0.108908 -0.014423 0.997573 0.0681175
-0.306341 -0.0628927 0.108787 -0.0171536 0.996642 0.0800614
-0.323677 -0.0629411 0.107464 -0.020394 0.995765 0.0896496
-0.341996 -0.0633818 0.107298 -0.0278966 0.994161 0.104241
-0.359587 -0.0641922 0.109253 -0.0303606 0.991349 0.12769
-0.377701 -0.0647081 0.109405 -0.0270514 0.989351 0.143014
-0.396022 -0.0650057 0.108939 -0.0231669 0.987583 0.155383
-0.413897 -0.0651848 0.108487 -0.0294648 0.986391 0.161753
-0.429622 -0.0651457 0.105616 -0.0403462 0.986187 0.160646
0.513802 -0.0711168 0.0953469 0.735603 0.351334 0.579183
-0.510724 -0.0735006 0.108347 -0.253013 0.947184 0.197043
-0.502032 -0.0679691 0.08987 -0.179225 0.968647 0.172048
-0.53099 -0.0795912 0.105653 -0.471637 0.861849 0.186482
-0.521863 -0.0730774 0.0895837 -0.343618 0.921897 0.178978
0.506062 -0.0836039 0.109977 0.734469 0.178834 0.654656
-0.545337 -0.0892054 0.106688 -0.707404 0.684521 0.176101
0.508497 -0.101031 0.105796 0.766504 -0.198478 0.610801
-0.554137 -0.0999769 0.0992371 -0.868509 0.475169 0.14109
0.504719 -0.116206 0.101561 0.72622 -0.444137 0.524736
-0.559584 -0.116924 0.105261 -0.981353 0.153589 0.115574
0.489171 -0.128726 0.107311 0.659375 -0.585653 0.471419
0.475953 -0.141184 0.106431 0.581959 -0.691507 0.427951
-0.559037 -0.135338 0.110772 -0.96662 -0.228117 0.116659
0.461336 -0.15056 0.108221 0.488065 -0.750795 0.445083
0.445206 -0.159531 0.107194 0.338643 -0.780427 0.525598
0.425713 -0.163184 0.10826 0.10947 -0.830497 0.54616
0.406646 -0.162828 0.108153 -0.0788738 -0.870216 0.486315
0.38577 -0.161171 0.10317 -0.214439 -0.914011 0.344384
0.366716 -0.155723 0.105805 -0.168366 -0.970262 0.17391
0.348324 -0.153685 0.107855 -0.0843715 -0.994411 0.0634713
0.330009 -0.153292 0.109025 -0.0241665 -0.999587 0.0155454
0.311705 -0.153287 0.109272 -0.00356271 -0.99999 0.00264597
0.293426 -0.153287 0.109544 -2.36074e-005 -1 -3.90928e-005
0.274934 -0.153287 0.112953 -1.2652e-005 -1 1.43297e-005
0.256433 -0.153287 0.104297 6.61079e-006 -1 -1.55686e-005
0.236711 -0.153287 0.109624 5.03858e-006 -1 -4.81317e-006
0.216364 -0.153287 0.110421 0.000135661 -1 -0.000216343
0.198905 -0.153287 0.1123 -0.000142433 -1 0.000109283
0.182497 -0.153287 0.103407 0.000290392 -1 -0.000132462
0.167036 -0.153287 0.110479 0.000553581 -0.999997 -0.00234189
0.148768 -0.153287 0.111078 0.0013844 -0.999984 -0.00556321
0.129014 -0.15329 0.104638 0.00279368 -0.999967 -0.00761042
0.111717 -0.153286 0.108992 0.00483433 -0.999874 -0.0151474
0.0947374 -0.153328 0.112661 0.0119104 -0.999395 -0.0326812
0.0760022 -0.15325 0.107716 0.0132571 -0.999234 -0.0368105
0.0557977 -0.153427 0.108808 0.0286965 -0.996986 -0.0720731
0.0370141 -0.153978 0.107786 0.0386035 -0.994543 -0.0969188
0.0169579 -0.15505 0.109412 0.0506659 -0.9896 -0.134625
-0.00278947 -0.156262 0.110703 0.0608939 -0.983405 -0.1709
-0.0218861 -0.156254 0.105047 0.0588273 -0.982663 -0.175818
-0.0392003 -0.159137 0.11045 0.0703178 -0.974383 -0.213619
-0.0574062 -0.160489 0.109923 0.0727323 -0.972887 -0.219547
-0.0742436 -0.160495 0.10416 0.0757291 -0.971699 -0.223756
-0.551878 -0.150057 0.119729 -0.830694 -0.53912 0.138915
0.434366 -0.173058 0.0951173 0.206864 -0.699471 0.684067
0.415294 -0.175124 0.0947219 -0.0876133 -0.726224 0.681852
0.397826 -0.171666 0.0931835 -0.283074 -0.776356 0.563151
-0.0875359 -0.164304 0.113398 0.0757044 -0.971729 -0.223635
-0.104351 -0.164309 0.107639 0.0727448 -0.97289 -0.219528
-0.1225 -0.165663 0.107142 0.0703757 -0.974413 -0.213465
-0.139819 -0.168559 0.112613 0.0584607 -0.982724 -0.175602
-0.158865 -0.168584 0.107143 0.0579744 -0.983586 -0.170875
-0.178492 -0.169705 0.108065 0.0441893 -0.989377 -0.138493
-0.198377 -0.170646 0.11022 0.0303755 -0.993883 -0.10618
-0.216832 -0.170849 0.1086 0.0214508 -0.995446 -0.0928852
-0.23573 -0.171011 0.107903 0.0176507 -0.996736 -0.0787716
-0.25485 -0.171351 0.108049 0.0190653 -0.997931 -0.0613944
-0.273387 -0.17151 0.108441 0.01163 -0.999178 -0.0388391
-0.291509 -0.171505 0.107978 0.00916415 -0.999518 -0.0296577
-0.309768 -0.17151 0.1082 0.00452972 -0.999854 -0.0164516
-0.327956 -0.17151 0.10843 0.00224141 -0.999965 -0.00810659
-0.34618 -0.17151 0.107846 0.00256328 -0.999979 -0.00597921
-0.36549 -0.17151 0.109895 0.000306716 -1 -0.00058402
-0.385181 -0.17151 0.109307 0.000543982 -0.999998 0.00186318
-0.404001 -0.171512 0.10934 0.00152384 -0.999989 0.00433109
-0.422496 -0.171509 0.109949 0.000921941 -0.999978 0.0065419
-0.441679 -0.171508 0.108993 0.000651936 -0.99994 0.0109051
-0.459959 -0.171507 0.108367 -0.00213995 -0.99994 0.0107658
-0.477208 -0.17151 0.108264 -0.0103473 -0.99993 0.00566377
-0.493835 -0.171454 0.105301 -0.0515379 -0.998631 0.0089885
-0.509299 -0.170824 0.108671 -0.152052 -0.988167 0.0201361
-0.525306 -0.168276 0.110665 -0.335914 -0.940809 0.0451731
-0.540323 -0.161676 0.114326 -0.587934 -0.804854 0.0808944
0.420584 0.863414 0.0913939 0.407854 0.86922 0.279484
0.345471 0.878927 0.066737 -0.223986 0.77457 0.5915
0.323269 0.876379 0.0597424 -0.408373 0.64004 0.650831
0.448402 0.840169 0.0951379 0.763245 0.636927 0.10854
0.325068 0.863691 0.0701371 -0.494795 0.487453 0.719422
0.30568 0.863676 0.0556236 -0.568588 0.426132 0.703647
0.306934 0.847066 0.0624803 -0.627249 0.254371 0.736107
0.463847 0.808696 0.095213 0.948438 0.314904 -0.0360529
0.456779 0.826619 0.0879939 0.885898 0.456096 -0.0846265
0.307677 0.829543 0.0665877 -0.665173 0.130885 0.735129
0.309122 0.81187 0.0693267 -0.684588 0.0654244 0.725988
0.465739 0.792806 0.0861096 0.959815 0.182583 -0.213118
0.311369 0.793998 0.0724425 -0.696742 0.0312123 0.716642
0.471275 0.774235 0.0949443 0.984946 0.123807 -0.120637
0.315953 0.775646 0.0773397 -0.701746 0.0139283 0.712291
0.470558 0.755794 0.0876757 0.968971 0.0557631 -0.240804
0.304886 0.75762 0.0662912 -0.706268 0.00253095 0.70794
0.471172 0.737578 0.0893315 0.972768 0.0198752 -0.230925
0.309046 0.739554 0.0704511 -0.70686 0.000365003 0.707353
0.469004 0.722073 0.0817272 0.947461 0.00464418 -0.319837
0.310851 0.721323 0.0722572 -0.70714 -0.000112461 0.707073
0.472144 0.703819 0.0931599 0.982175 -0.00138947 -0.187961
0.314922 0.703032 0.0763275 -0.707129 4.76433e-005 0.707085
0.470995 0.686009 0.0881659 0.969352 -0.00752952 -0.245562
0.305877 0.68476 0.0672828 -0.706591 0.000435357 0.707622
0.470133 0.668274 0.0854506 0.961162 -0.0246054 -0.274885
0.310051 0.666244 0.0714571 -0.70563 -0.00378838 0.70857
0.468188 0.650241 0.0809632 0.946126 -0.0526858 -0.319484
0.311315 0.648224 0.0727144 -0.703763 -0.0218172 0.710099
0.469911 0.632146 0.0906999 0.979236 -0.106969 -0.172208
0.312502 0.630162 0.0733075 -0.70009 -0.0725309 0.710361
0.46636 0.615543 0.0847926 0.961058 -0.142869 -0.236551
0.315394 0.612231 0.0739067 -0.693509 -0.165467 0.701189
0.462043 0.5993 0.0814986 0.95365 -0.158374 -0.255871
0.337427 0.59501 0.0913919 -0.70796 -0.247705 0.661388
0.459435 0.580856 0.0871115 0.974039 -0.195561 -0.114032
0.344048 0.577921 0.091987 -0.729506 -0.340335 0.59329
0.330111 0.578434 0.0739129 -0.680591 -0.450264 0.577978
0.455718 0.563913 0.0844734 0.984459 -0.158509 -0.0756048
0.352781 0.559753 0.0901665 -0.770055 -0.398525 0.498189
0.45342 0.5435 0.0891533 0.979028 -0.159868 0.126281
0.360844 0.540236 0.0857646 -0.846403 -0.363253 0.389423
0.452431 0.52355 0.0837866 0.98663 -0.0877326 0.137346
0.36681 0.521355 0.0864257 -0.886132 -0.271654 0.375464
0.446414 0.505632 0.0937159 0.881875 -0.131025 0.452912
0.446147 0.485287 0.0898659 0.869229 -0.0917153 0.485829
0.445445 0.467041 0.0893624 0.834263 -0.0625076 0.547812
0.446997 0.450917 0.08661 0.85153 -0.0295922 0.523471
0.446833 0.434479 0.0868396 0.841776 -0.0111878 0.539712
0.446757 0.416786 0.0869292 0.834724 -0.00198883 0.550664
0.446744 0.398703 0.0869426 0.833782 -0.000362801 0.552094
0.446777 0.380494 0.0868921 0.834883 -0.000175064 0.550428
0.446787 0.36225 0.0868777 0.835184 -9.48609e-005 0.549971
0.446788 0.344004 0.0868757 0.835252 -7.95792e-005 0.549868
0.446791 0.32574 0.0868715 0.835405 -9.62241e-005 0.549635
0.446802 0.307415 0.086853 0.835896 -0.00010834 0.548888
0.446808 0.288968 0.0868427 0.836359 -0.000222777 0.548183
0.446774 0.270389 0.0869055 0.835405 6.40736e-005 0.549635
0.446834 0.251829 0.0867995 0.83674 -0.000449492 0.547601
0.447052 0.233529 0.0864679 0.838072 -0.00498911 0.545537
0.447946 0.215813 0.0850366 0.85691 -0.00500155 0.515442
0.378443 0.209043 0.0864638 -0.795878 -0.104369 0.596394
0.446905 0.197326 0.0867614 0.818753 -0.00733829 0.574099
0.373086 0.192715 0.0728709 -0.931407 -0.0930303 0.351889
0.446464 0.179422 0.087374 0.817668 -0.00715723 0.575645
0.3756 0.175293 0.0737049 -0.918397 -0.0675641 0.38985
0.446315 0.159111 0.0873514 0.805834 -0.0123069 0.592014
0.376909 0.156888 0.0738161 -0.911502 -0.0377178 0.409563
0.447433 0.139841 0.0853219 0.822879 -0.0249509 0.567669
0.377195 0.138901 0.0733734 -0.906793 -0.027848 0.420655
0.447189 0.121052 0.0842314 0.814801 -0.0458694 0.577923
0.377405 0.119177 0.0734197 -0.900076 -0.0213565 0.435209
0.446472 0.102337 0.0829577 0.789285 -0.0658059 0.610491
0.378662 0.100776 0.0749138 -0.857569 -0.0300647 0.51349
0.445958 0.0835577 0.0820155 0.746298 -0.0611764 0.662795
0.374563 0.0850075 0.0663828 -0.944368 -0.0220579 0.328151
0.446174 0.0649399 0.0810064 0.716003 -0.0172175 0.697885
0.374799 0.067616 0.0676988 -0.926859 -0.0252039 0.374562
0.447299 0.0460966 0.0801848 0.692732 0.0483129 0.719575
0.37514 0.0495749 0.0675773 -0.912386 -0.00824962 0.409248
0.448957 0.0269125 0.0799438 0.633324 0.152753 0.758662
0.375806 0.0325768 0.0685071 -0.88571 0.0385605 0.462635
0.464346 0.00567519 0.0694255 0.795976 0.390947 0.462151
0.452625 0.00715279 0.0813679 0.581936 0.291985 0.75901
0.375382 0.0148785 0.0695254 -0.848512 0.134599 0.511772
0.46085 -0.0131619 0.0844549 0.532306 0.470474 0.703779
0.374049 -0.00386487 0.0728101 -0.768337 0.313667 0.557917
0.369534 -0.0236256 0.0784374 -0.599902 0.572982 0.558399
0.505253 -0.0570101 0.0907277 0.64152 0.572466 0.510621
0.509708 -0.0503862 0.0728524 0.658489 0.655126 0.370407
0.324537 -0.0541538 0.0944593 -0.170492 0.952911 0.250784
0.335521 -0.0468028 0.0785548 -0.302374 0.909603 0.284943
0.304097 -0.0554522 0.0902242 -0.100012 0.97266 0.209596
0.317882 -0.0496818 0.0740138 -0.189453 0.953979 0.232448
0.285108 -0.0571069 0.0897701 -0.0622241 0.980382 0.18703
0.296613 -0.0515353 0.070726 -0.110678 0.971927 0.207625
0.267917 -0.0591457 0.0935357 -0.0411457 0.98612 0.160852
0.252238 -0.0591148 0.0907082 -0.0295895 0.98635 0.161983
0.234313 -0.0593166 0.0903694 -0.0231479 0.987562 0.155519
0.215946 -0.0596245 0.0899647 -0.0269904 0.989353 0.14301
0.1978 -0.0601424 0.0901367 -0.0303085 0.991366 0.127577
0.180195 -0.0609497 0.0920818 -0.0278396 0.994182 0.104055
0.161874 -0.0613894 0.0919057 -0.0203539 0.995777 0.0895171
0.144538 -0.0614368 0.0905774 -0.0171036 0.996653 0.0799371
0.126872 -0.0615819 0.0904641 -0.014358 0.997583 0.0679913
0.109103 -0.0618631 0.0913363 -0.0138441 0.998709 0.0488739
0.0909358 -0.0621102 0.0916781 -0.00868193 0.999291 0.036625
0.0727083 -0.0621761 0.0911674 -0.00567959 0.999503 0.0309959
0.0548442 -0.0621668 0.0907246 -0.00369034 0.999678 0.0250954
0.0369462 -0.0621689 0.0909851 -0.00363011 0.999839 0.0175838
0.0188525 -0.0621668 0.091257 -0.00293598 0.999941 0.0104785
0.000618793 -0.0621637 0.0911211 -0.000960078 0.999972 0.00748098
-0.0175573 -0.0621627 0.0908348 -0.000361941 0.999984 0.00556628
-0.035619 -0.0621627 0.0907699 -0.000552432 0.999995 0.00318018
-0.0537302 -0.0621627 0.0908606 -0.000255435 0.999999 0.00149332
-0.0719196 -0.0621627 0.0908358 -6.7922e-005 1 0.000116874
-0.0901224 -0.0621627 0.0906886 2.60736e-005 1 -8.23795e-005
-0.108289 -0.0621627 0.090564 -3.67025e-006 1 -5.22651e-005
-0.126435 -0.0621627 0.0905238 9.98849e-006 1 -4.91016e-005
-0.144592 -0.0621627 0.0905002 1.62708e-005 1 -5.19613e-005
-0.162765 -0.0621627 0.0904075 2.21515e-005 1 -8.55574e-005
-0.180936 -0.0621627 0.0902654 -6.67039e-005 1 0.000133765
-0.199074 -0.0621627 0.0902098 -0.000220274 0.999999 0.00148826
-0.217158 -0.0621627 0.0901964 -0.000910671 0.999994 0.00340274
-0.235321 -0.0621627 0.0900327 -0.00116566 0.999975 0.00698542
-0.25355 -0.0621596 0.0898978 -0.00295477 0.99994 0.0105395
-0.271641 -0.0621575 0.0901511 -0.00364532 0.999838 0.0176467
-0.289534 -0.0621596 0.0904044 -0.0037102 0.999677 0.0251387
-0.307396 -0.0621503 0.0899514 -0.0056874 0.999503 0.0310041
-0.325635 -0.0622162 0.0894293 -0.00868331 0.999292 0.0366121
-0.343855 -0.0624644 0.0897608 -0.0130508 0.998729 0.0486801
-0.361763 -0.0627496 0.0906495 -0.0144223 0.997752 0.0654445
-0.37971 -0.0628413 0.0906835 -0.0114914 0.996895 0.0778946
-0.397484 -0.0628835 0.0903663 -0.00995369 0.996176 0.0867948
-0.414867 -0.062936 0.0891647 -0.0192799 0.995598 0.0917264
-0.433188 -0.0633767 0.0889979 -0.0309329 0.993909 0.105774
-0.450744 -0.0642766 0.0907627 -0.0439258 0.990426 0.130871
-0.46853 -0.064949 0.0904878 -0.057643 0.987825 0.144493
-0.48466 -0.0651333 0.0865946 -0.0946089 0.98452 0.147544
0.53113 -0.0849394 0.0758302 0.860794 0.0906889 0.500808
0.519947 -0.0858476 0.0925884 0.810518 0.0777643 0.580528
-0.542171 -0.0830427 0.0868602 -0.638837 0.752273 0.161157
-0.552943 -0.08895 0.0674094 -0.815183 0.572839 0.0856312
0.521986 -0.1031 0.0864731 0.810737 -0.26812 0.520401
-0.556027 -0.0986785 0.0827466 -0.8884 0.44478 0.11365
0.514053 -0.11909 0.084565 0.728103 -0.529247 0.435618
-0.560454 -0.116574 0.0887003 -0.990658 0.11754 0.069141
0.499939 -0.130665 0.0883821 0.657345 -0.645563 0.388776
0.485165 -0.142097 0.0901583 0.611342 -0.692862 0.382365
-0.559712 -0.134415 0.0937241 -0.970424 -0.238397 0.0380116
0.469252 -0.154225 0.0916586 0.575807 -0.700164 0.422156
0.367585 -0.160395 0.0869292 -0.347694 -0.908716 0.230963
0.349037 -0.155099 0.0888599 -0.208344 -0.972236 0.10654
0.33237 -0.153468 0.0915319 -0.0886546 -0.995108 0.0435871
0.315347 -0.15331 0.090909 -0.0222177 -0.999725 0.00747202
0.29703 -0.153287 0.0911046 -0.00208081 -0.999998 -0.000358842
0.277269 -0.153287 0.0935079 0.000256488 -1 -0.000171204
0.25846 -0.153287 0.0875306 -0.000181296 -1 8.5795e-005
0.239683 -0.153287 0.0885963 0.000118736 -1 -0.000290941
0.220582 -0.153287 0.0920395 2.74532e-006 -1 -1.55715e-005
0.201269 -0.153287 0.0947239 4.91632e-006 -1 -1.68315e-005
0.182522 -0.153287 0.0855875 2.56198e-006 -1 -1.22713e-005
0.162744 -0.153287 0.0918593 9.30918e-005 -1 -0.000242299
0.143719 -0.153287 0.0914536 -0.000152121 -1 8.44949e-005
0.125175 -0.153287 0.0879156 0.000436225 -1 -0.000333664
0.109777 -0.153287 0.0900677 0.000291484 -1 -0.000447063
0.0933174 -0.153287 0.095559 0.00214116 -0.999975 -0.00669037
0.077 -0.153288 0.0881689 0.00230238 -0.999974 -0.00680671
0.0601502 -0.153282 0.0902942 0.00807722 -0.999777 -0.0195292
0.0408497 -0.153253 0.0900244 0.011776 -0.999461 -0.0306449
0.0209963 -0.153397 0.0904075 0.0213289 -0.998207 -0.0559263
0.00219937 -0.15397 0.094346 0.0327108 -0.995222 -0.0919928
-0.0165729 -0.154046 0.0885819 0.0312887 -0.994732 -0.0976191
-0.0374395 -0.155072 0.091291 0.0457709 -0.989361 -0.138097
-0.0574381 -0.15622 0.092263 0.0582421 -0.983542 -0.171037
-0.0765954 -0.156243 0.0867583 0.060304 -0.982753 -0.174816
-0.0939426 -0.159134 0.0921899 0.0703577 -0.974391 -0.213571
-0.112098 -0.160489 0.0916915 0.0727341 -0.972883 -0.219565
-0.128915 -0.160488 0.0859098 0.0757863 -0.971725 -0.223621
-0.552893 -0.150717 0.10124 -0.818563 -0.572852 0.0423679
0.453013 -0.16742 0.0911087 0.464427 -0.686419 0.559586
0.383763 -0.172094 0.0814399 -0.455699 -0.775388 0.437163
-0.142164 -0.164297 0.0951636 0.0734085 -0.97356 -0.216316
-0.158921 -0.164297 0.0894036 0.0721673 -0.973111 -0.218738
-0.176972 -0.165645 0.0889093 0.0671236 -0.974525 -0.214
-0.194069 -0.168445 0.0941308 0.0522382 -0.982252 -0.180142
-0.213078 -0.16841 0.0898772 0.0430563 -0.983633 -0.174962
-0.232931 -0.169112 0.089834 0.0377172 -0.987294 -0.154364
-0.251523 -0.169777 0.0902572 0.037025 -0.990431 -0.132952
-0.271403 -0.170586 0.0910202 0.0326089 -0.993863 -0.105703
-0.28972 -0.170988 0.0896445 0.0270571 -0.995828 -0.0871434
-0.308227 -0.171343 0.0900832 0.0213775 -0.997775 -0.0631482
-0.326639 -0.171508 0.0905177 0.0121744 -0.999148 -0.0394454
-0.344727 -0.171507 0.090355 0.0109097 -0.999517 -0.029093
-0.362976 -0.171511 0.0910933 0.00628865 -0.999926 -0.0104214
-0.38116 -0.171506 0.0915381 0.00651803 -0.999979 0.000530917
-0.399523 -0.1715 0.0914444 0.00697202 -0.99985 0.0158842
-0.417548 -0.171561 0.0917152 0.00493713 -0.999606 0.0276124
-0.434844 -0.17158 0.0935182 0.000850892 -0.999538 0.030383
-0.453521 -0.171643 0.0886045 -0.0067778 -0.998636 0.051768
-0.472771 -0.17152 0.0899338 -0.0131402 -0.999386 0.0324675
-0.490659 -0.171523 0.0891142 -0.0485438 -0.998555 0.023035
-0.508808 -0.170862 0.0903447 -0.143341 -0.98963 0.00927813
-0.525469 -0.16837 0.0920993 -0.327622 -0.944771 0.00843314
-0.540751 -0.162035 0.0951894 -0.576611 -0.81695 0.0106064
0.441454 -0.184344 0.08328 0.347241 -0.55864 0.753223
0.422995 -0.18898 0.0844497 0.0177596 -0.558347 0.829418
0.402403 -0.187178 0.0810209 -0.403614 -0.585054 0.703426
0.435552 -0.20269 0.0755213 0.255539 -0.369201 0.893527
0.414324 -0.204936 0.0758827 -0.222756 -0.403126 0.88762
0.398047 -0.205212 0.0678048 -0.587309 -0.3796 0.714823
0.437725 -0.222794 0.0700176 0.261009 -0.176854 0.948998
0.420899 -0.221898 0.0713675 -0.126154 -0.219115 0.967509
0.404562 -0.222183 0.0661378 -0.519804 -0.225374 0.824021
0.438066 -0.242692 0.0684154 0.235326 -0.0600968 0.970057
0.422158 -0.241396 0.0691784 -0.136145 -0.0950283 0.986121
0.406879 -0.238352 0.0646869 -0.499819 -0.122797 0.857381
0.437647 -0.262463 0.0683094 0.20648 -0.0174906 0.978294
0.421254 -0.260313 0.068365 -0.181913 -0.0281815 0.982911
0.405206 -0.256027 0.0622929 -0.547315 -0.0469335 0.83561
0.437417 -0.281274 0.0683516 0.187564 0.000775962 0.982252
0.421043 -0.279221 0.068296 -0.191638 -0.00245662 0.981463
0.405034 -0.274333 0.0619428 -0.566932 -0.0118423 0.82368
0.436394 -0.299435 0.0685235 0.168377 -0.000901367 0.985722
0.420879 -0.297989 0.0682651 -0.196942 -0.000535697 0.980415
0.405551 -0.293413 0.0622878 -0.55251 -0.00180951 0.833504
0.436669 -0.317914 0.0684772 0.159528 -0.00145116 0.987192
0.420843 -0.316585 0.068261 -0.199945 -0.00495958 0.979795
0.40564 -0.31239 0.0623742 -0.550995 -0.00447831 0.834496
0.437722 -0.335314 0.0683639 0.188914 -0.0145935 0.981885
0.421147 -0.335044 0.0682208 -0.199325 -0.0213724 0.9797
0.405866 -0.331427 0.0623712 -0.549916 -0.0205157 0.834968
0.439014 -0.352968 0.068053 0.205838 -0.0351532 0.977955
0.422204 -0.35318 0.0681323 -0.186109 -0.0579008 0.980822
0.406538 -0.350822 0.0621508 -0.542214 -0.0593306 0.838143
0.441889 -0.37103 0.0662665 0.25711 -0.0559573 0.964761
0.425342 -0.371406 0.0675278 -0.142086 -0.0896984 0.985782
0.432812 -0.389251 0.0658659 -0.0223334 -0.105108 0.99421
0.415483 -0.390039 0.0609461 -0.409889 -0.124514 0.903597
0.437782 -0.405491 0.0649423 0.120891 -0.139429 0.982825
0.420488 -0.408117 0.0608555 -0.316234 -0.148781 0.936942
0.402321 0.874195 0.0722335 0.36241 0.920184 0.148056
0.384986 0.878486 0.0729965 0.148732 0.934945 0.322113
0.366486 0.881415 0.0689941 -0.00949228 0.895107 0.44575
0.347483 0.890451 0.0487535 -0.0148781 0.922844 0.384887
0.430335 0.856861 0.0730171 0.654376 0.750728 -0.0905571
0.417221 0.867867 0.0741456 0.498762 0.865302 0.049886
0.306932 0.879362 0.0448963 -0.46661 0.63878 0.611747
0.444576 0.842796 0.0758879 0.788744 0.591739 -0.16652
0.288493 0.865099 0.0393988 -0.610412 0.414052 0.675246
0.288823 0.847567 0.0464357 -0.658817 0.225585 0.717684
0.453372 0.826401 0.0705428 0.870459 0.391403 -0.298505
0.290236 0.829903 0.0501241 -0.682317 0.106974 0.723188
0.459225 0.810286 0.0754029 0.916007 0.265843 -0.300433
0.291671 0.812289 0.0525356 -0.694484 0.0435956 0.718186
0.464744 0.776712 0.0761968 0.930826 0.101795 -0.351
0.457408 0.795404 0.0649186 0.888888 0.144107 -0.43487
0.294262 0.794617 0.0555587 -0.701215 0.0178664 0.712726
0.298826 0.776133 0.0602171 -0.705034 0.00746183 0.709134
0.462267 0.761163 0.0687037 0.895471 0.0466834 -0.442665
0.287108 0.75826 0.0485136 -0.707026 0.000916179 0.707187
0.463264 0.742438 0.0696541 0.895455 0.0181342 -0.444782
0.290061 0.740041 0.0514668 -0.707238 0.000107544 0.706975
0.459616 0.723408 0.0628788 0.863904 0.00346715 -0.503644
0.292503 0.721523 0.0539092 -0.706975 0.000293888 0.707238
0.465799 0.70432 0.0743608 0.91676 -0.000929217 -0.399438
0.296386 0.703205 0.0577921 -0.706601 0.000732919 0.707612
0.463504 0.686249 0.0697406 0.89633 -0.00603964 -0.443347
0.288818 0.684962 0.0502384 -0.703729 0.00362071 0.71046
0.462054 0.668699 0.067187 0.883069 -0.0224355 -0.468707
0.29276 0.666602 0.0541645 -0.701545 -0.000249112 0.712625
0.459229 0.650852 0.0630981 0.863451 -0.0416308 -0.502713
0.294124 0.648692 0.0555093 -0.698936 -0.0162501 0.715
0.461895 0.633013 0.0704624 0.89746 -0.0794151 -0.433888
0.295446 0.630556 0.0564927 -0.69154 -0.0626217 0.719619
0.457757 0.615409 0.0658525 0.886048 -0.104078 -0.45176
0.297661 0.611712 0.0567007 -0.670529 -0.162434 0.723882
0.454767 0.596004 0.0662232 0.904476 -0.105931 -0.413161
0.321338 0.594704 0.0741889 -0.6929 -0.297807 0.656658
0.452398 0.577043 0.0660286 0.927419 -0.0946643 -0.361847
0.453054 0.557506 0.0715045 0.967168 -0.0839562 -0.239868
0.348077 0.550731 0.0710308 -0.777075 -0.547199 0.311011
0.340501 0.565433 0.0757561 -0.72789 -0.502651 0.466388
0.452355 0.540075 0.0701649 0.983099 -0.0466833 -0.17702
0.357275 0.535445 0.0662448 -0.865102 -0.481866 0.139301
0.35034 0.543934 0.0519394 -0.722516 -0.687426 0.073589
0.451146 0.521298 0.0662829 0.987601 0.0033531 -0.156948
0.363754 0.520825 0.0689766 -0.941103 -0.317226 0.117016
0.45118 0.503434 0.078007 0.988268 -0.0407572 0.147194
0.367207 0.502779 0.0716754 -0.977798 -0.169669 0.122976
0.452239 0.484203 0.0746605 0.982988 -0.0151358 0.183046
0.369413 0.483785 0.0754667 -0.975213 -0.0772591 0.207341
0.452557 0.466413 0.0728338 0.982788 -0.00600262 0.184641
0.369462 0.466075 0.0722047 -0.985149 -0.0360421 0.167873
0.452781 0.448625 0.071106 0.983698 -0.000675677 0.179828
0.369228 0.448955 0.0698323 -0.99225 -0.0199283 0.122646
0.452804 0.430665 0.0708918 0.984609 0.000463888 0.174772
0.369448 0.430156 0.0710803 -0.98469 -0.0110062 0.173965
0.45274 0.412686 0.0712553 0.982426 0.00055665 0.18665
0.369639 0.411418 0.0716229 -0.980764 -0.00639449 0.19509
0.452729 0.394499 0.0713171 0.982102 0.000441803 0.188347
0.369593 0.392687 0.0713799 -0.981769 -0.00235743 0.190064
0.452728 0.376242 0.0713253 0.982044 0.000455048 0.188651
0.369588 0.374291 0.0713521 -0.981926 -0.000311708 0.189267
0.452727 0.357985 0.0713305 0.98201 0.000458975 0.188827
0.369585 0.356016 0.0713397 -0.981976 -0.000454405 0.189007
0.452726 0.339727 0.0713356 0.981985 0.000461939 0.188957
0.369585 0.337779 0.0713356 -0.981983 -0.000459732 0.188967
0.452725 0.321438 0.0713428 0.981952 0.000484632 0.189132
0.369585 0.319551 0.0713366 -0.981978 -0.000453868 0.188993
0.45272 0.303079 0.0713675 0.981835 0.00052024 0.189737
0.369586 0.301317 0.0713428 -0.981948 -0.000453638 0.189153
0.452702 0.284665 0.0714623 0.981357 0.000522511 0.192192
0.369585 0.283075 0.0713377 -0.981996 -0.000462601 0.188901
0.452684 0.266337 0.0715591 0.980859 0.00078904 0.194719
0.369579 0.264815 0.0713047 -0.981908 -0.00253264 0.189343
0.452703 0.248183 0.0714561 0.981221 0.000680953 0.192885
0.369567 0.246487 0.071209 -0.981136 -0.0123859 0.192922
0.452813 0.230269 0.0708311 0.983849 0.0011782 0.178997
0.369773 0.228471 0.0709258 -0.978122 -0.0381703 0.204501
0.452863 0.211623 0.0705376 0.984814 -0.000990978 0.173608
0.370694 0.210283 0.0715395 -0.964727 -0.0710009 0.253497
0.452698 0.193531 0.0714849 0.979301 3.98406e-005 0.202411
0.452605 0.175072 0.0719648 0.975885 0.00201165 0.218278
0.452704 0.156829 0.0711987 0.976761 0.00338351 0.214304
0.452959 0.138495 0.0693411 0.980636 0.00979988 0.195596
0.452894 0.120713 0.0701968 0.964181 0.00438778 0.265209
0.453175 0.101262 0.0697437 0.948316 -0.00615965 0.317268
0.453588 0.0826896 0.0684092 0.9371 0.00347517 0.349045
0.454308 0.0636126 0.0671211 0.925642 0.0458135 0.375617
0.455863 0.0441453 0.0661305 0.910631 0.123385 0.394369
0.464465 0.0182508 0.0503557 0.942666 0.329481 0.0531399
0.45946 0.0247265 0.0668472 0.869919 0.238271 0.43182
0.473271 -0.0113558 0.0690981 0.735704 0.531745 0.419509
0.496032 -0.0369178 0.0693473 0.625328 0.702608 0.33957
0.495612 -0.0306151 0.0497616 0.682175 0.72259 0.111804
0.484796 -0.0234948 0.0641916 0.706191 0.648075 0.28512
0.35266 -0.0376119 0.0769402 -0.482644 0.787139 0.384015
0.354609 -0.0286587 0.0602799 -0.661997 0.712317 0.233163
0.522185 -0.0661991 0.078493 0.75935 0.448402 0.471512
0.524626 -0.0563295 0.0582195 0.7152 0.640519 0.279686
0.27217 -0.0542403 0.0744587 -0.0607751 0.976523 0.206663
0.283382 -0.0488921 0.055185 -0.0645361 0.980241 0.186981
0.250939 -0.0550671 0.0728925 -0.0394321 0.977449 0.20746
0.26455 -0.0503058 0.0555423 -0.0446545 0.978343 0.202117
0.231059 -0.0555222 0.0721336 -0.0345808 0.978353 0.204035
0.245054 -0.0506868 0.0547607 -0.035225 0.977536 0.207806
0.211703 -0.0558713 0.0712718 -0.043069 0.979389 0.197336
0.225171 -0.0511677 0.0541048 -0.0384057 0.976913 0.210155
0.193259 -0.0572315 0.0715817 -0.0474767 0.981825 0.183753
0.204068 -0.0519914 0.0525737 -0.0516452 0.976472 0.209368
0.176429 -0.0591869 0.0754379 -0.039409 0.986544 0.158675
0.160825 -0.0591241 0.0724055 -0.0369282 0.986858 0.157314
0.142994 -0.0595061 0.0717671 -0.0361621 0.988677 0.145638
0.124965 -0.0601332 0.0718402 -0.0335793 0.991151 0.128419
0.107363 -0.0609415 0.0737873 -0.0288465 0.994114 0.104433
0.0890226 -0.0613853 0.0736349 -0.0204193 0.995759 0.0897041
0.0716693 -0.0614347 0.0723262 -0.0171417 0.996642 0.080063
0.0539906 -0.0615809 0.0722263 -0.0143728 0.997578 0.0680579
0.036213 -0.0618631 0.0731046 -0.0138487 0.998707 0.0489063
0.0180442 -0.0621102 0.0734496 -0.00868603 0.999291 0.0366342
-0.000185392 -0.0621761 0.0729388 -0.00567848 0.999503 0.0310036
-0.0180484 -0.0621668 0.0724951 -0.00369296 0.999678 0.0251026
-0.0359454 -0.0621689 0.0727535 -0.00362995 0.999839 0.017588
-0.0540381 -0.0621668 0.0730233 -0.00294141 0.999941 0.0104817
-0.0722707 -0.0621637 0.0728853 -0.000960277 0.999972 0.00747988
-0.0904447 -0.0621627 0.0725939 -0.000227862 0.999983 0.00586684
-0.108504 -0.0621627 0.0725239 -0.00055229 0.999995 0.00318265
-0.126611 -0.0621627 0.0726145 -0.000256972 0.999999 0.00149732
-0.144797 -0.0621627 0.0725846 -6.78278e-005 1 0.000116923
-0.162997 -0.0621627 0.072423 2.21031e-005 1 -8.85093e-005
-0.181159 -0.0621627 0.0722963 1.30995e-006 1 -6.25307e-005
-0.199296 -0.0621627 0.0722685 1.50605e-005 1 -7.3792e-005
-0.217468 -0.0621627 0.0722242 2.65797e-005 1 -9.93813e-005
-0.23568 -0.0621627 0.0721017 -7.38073e-005 1 0.000131136
-0.253873 -0.0621627 0.0720512 -0.000257607 0.999999 0.00152506
-0.271978 -0.0621627 0.0721388 -0.000560725 0.999995 0.00320705
-0.290036 -0.0621627 0.0720842 -0.000239901 0.999983 0.00588722
-0.308225 -0.0621627 0.0717949 -0.00096813 0.999971 0.0075023
-0.326497 -0.0621596 0.0716466 -0.00294342 0.999941 0.0104953
-0.34467 -0.0621575 0.0719215 -0.00335435 0.99984 0.0175597
-0.362682 -0.0621617 0.072251 -0.00239947 0.999695 0.0245627
-0.380625 -0.0621596 0.0721583 -0.00217506 0.999559 0.029614
-0.398504 -0.0621493 0.0716631 -0.00389795 0.999441 0.0331989
-0.416682 -0.0622152 0.0711904 -0.00931757 0.999282 0.0367106
-0.434754 -0.0624562 0.071489 -0.0159307 0.998661 0.0492179
-0.452474 -0.0627887 0.0721614 -0.0247281 0.997406 0.0675934
-0.470339 -0.062938 0.0708887 -0.0405437 0.995537 0.085221
-0.49013 -0.0637144 0.0692979 -0.0962496 0.989707 0.105906
-0.51032 -0.0663813 0.0719833 -0.211569 0.967979 0.135113
0.534247 -0.0699615 0.0627892 0.82999 0.419387 0.367738
-0.528601 -0.0716451 0.0712594 -0.416044 0.898902 0.137413
-0.543132 -0.0776904 0.0664055 -0.626122 0.772416 0.106511
-0.535984 -0.0715164 0.0503043 -0.512249 0.857734 0.0435112
0.534924 -0.100976 0.0662397 0.874006 -0.232943 0.426441
-0.560368 -0.103478 0.0660513 -0.956569 0.288628 0.040861
0.525156 -0.115902 0.0698024 0.766129 -0.521803 0.375191
-0.561511 -0.117434 0.0728935 -0.998706 0.0430078 0.0271477
0.509481 -0.130663 0.0693844 0.66283 -0.694257 0.28047
0.493169 -0.142231 0.0722613 0.646743 -0.71711 0.259761
-0.559584 -0.134851 0.0769876 -0.959742 -0.280879 0.0014865
0.47843 -0.154756 0.0746821 0.673246 -0.663152 0.327063
0.365298 -0.164468 0.0678542 -0.493615 -0.850599 0.181178
0.348481 -0.156711 0.0700166 -0.28731 -0.955689 0.0641261
0.328696 -0.153801 0.072807 -0.105515 -0.994387 0.00787194
0.308048 -0.153254 0.0724199 -0.0213681 -0.999666 -0.0145577
0.288945 -0.153294 0.073464 0.000667429 -0.999918 -0.0127667
0.271757 -0.153284 0.0751537 0.00129209 -0.999969 -0.00770778
0.253799 -0.153286 0.0692196 0.00161451 -0.999979 -0.00630389
0.236379 -0.153287 0.0706972 0.00095366 -0.999997 -0.00242468
0.219869 -0.153287 0.0738686 0.000271971 -1 -0.000311157
0.202121 -0.153287 0.0768146 -0.000112415 -1 0.000187987
0.184747 -0.153287 0.0676246 -9.10685e-005 -1 0.000111842
0.165498 -0.153287 0.0718268 4.69482e-006 -1 -1.45164e-006
0.147879 -0.153287 0.0730593 -9.37197e-006 -1 -2.76148e-006
0.130667 -0.153287 0.074193 2.4914e-006 -1 -1.4945e-005
0.111238 -0.153287 0.0699157 2.66934e-006 -1 -9.65134e-006
0.0925689 -0.153287 0.0760217 -0.000104868 -1 -2.73072e-005
0.072076 -0.153287 0.0700053 0.000113649 -1 -0.000318494
0.0525109 -0.153287 0.0723869 0.00172533 -0.999994 -0.00288984
0.0341011 -0.153289 0.0717506 0.00447389 -0.99995 -0.00896182
0.0180504 -0.153285 0.0717609 0.00500595 -0.999874 -0.0150775
0.00135811 -0.153365 0.0773366 0.012444 -0.999279 -0.0358801
-0.0167191 -0.1532 0.0684854 0.00910311 -0.999484 -0.0308045
-0.0345687 -0.15345 0.0731026 0.021249 -0.997923 -0.0608156
-0.0525934 -0.153967 0.0760382 0.0329662 -0.994689 -0.0975019
-0.0712235 -0.15404 0.0702874 0.0311578 -0.994762 -0.0973537
-0.0921324 -0.155071 0.0730562 0.0457805 -0.989372 -0.138014
-0.112157 -0.156216 0.0740097 0.0582036 -0.983562 -0.170931
-0.131376 -0.156226 0.0684062 0.0588608 -0.982732 -0.175424
-0.148589 -0.159102 0.0738429 0.070383 -0.974608 -0.212568
-0.166711 -0.160463 0.0733888 0.0717319 -0.97298 -0.219465
-0.183513 -0.160487 0.0676864 0.0679417 -0.973937 -0.216404
-0.552811 -0.150246 0.0824892 -0.808035 -0.58885 -0.01829
0.464635 -0.167924 0.0780698 0.644098 -0.608689 0.463288
0.377653 -0.176753 0.0637108 -0.685878 -0.669299 0.285675
0.368751 -0.170011 0.0485167 -0.679751 -0.732079 0.0447202
-0.196685 -0.164233 0.0769773 0.0632916 -0.973946 -0.217769
-0.213164 -0.163762 0.0706725 0.056428 -0.973567 -0.22132
-0.229875 -0.16514 0.0727761 0.0480599 -0.975876 -0.212969
-0.249674 -0.165795 0.0708537 0.0576071 -0.976179 -0.20918
-0.267113 -0.168429 0.0755532 0.0547098 -0.982531 -0.177875
-0.286699 -0.168662 0.0710339 0.0568459 -0.984019 -0.168748
-0.306147 -0.169724 0.0717238 0.0462703 -0.989451 -0.137283
-0.325341 -0.170567 0.0728472 0.0361155 -0.993658 -0.106482
-0.343705 -0.171046 0.0725002 0.0308134 -0.996529 -0.0773312
-0.361878 -0.171357 0.0728905 0.0284125 -0.998792 -0.0400985
-0.380102 -0.171565 0.0735381 0.02933 -0.99957 -0.000362041
-0.3982 -0.171836 0.0736318 0.0318026 -0.998592 0.0424618
-0.416264 -0.17216 0.0740128 0.0278954 -0.995874 0.0863521
-0.435136 -0.17222 0.0768527 0.0093839 -0.995666 0.0925274
-0.452179 -0.173074 0.0687346 -0.0140912 -0.986659 0.162191
-0.471442 -0.172174 0.072112 -0.0315627 -0.993772 0.106865
-0.488987 -0.1718 0.0710504 -0.0755133 -0.9942 0.0765822
-0.507193 -0.170975 0.0728554 -0.151613 -0.988199 0.0218125
-0.524965 -0.168256 0.0740561 -0.333976 -0.942433 -0.0167181
-0.540851 -0.161421 0.0760217 -0.580246 -0.813932 -0.0287785
0.455016 -0.184826 0.0729883 0.613269 -0.469363 0.635295
0.388555 -0.189508 0.0671304 -0.687564 -0.526306 0.500257
0.452298 -0.20486 0.0661995 0.627191 -0.262594 0.733263
0.387496 -0.205539 0.0522009 -0.86733 -0.309366 0.389912
0.453827 -0.226088 0.0621755 0.632664 -0.0943515 0.768657
0.393193 -0.222575 0.0552509 -0.798894 -0.194744 0.569073
0.452629 -0.247894 0.0626471 0.578621 -0.0240235 0.815242
0.394357 -0.241976 0.0529186 -0.813994 -0.0893574 0.573959
0.453534 -0.267421 0.0620592 0.5793 0.00202503 0.815112
0.392826 -0.263568 0.0489152 -0.859654 -0.0276637 0.510128
0.453032 -0.285124 0.0624453 0.57789 0.00807698 0.816075
0.393603 -0.284571 0.0502085 -0.83817 -0.00240324 0.545403
0.450402 -0.302452 0.0640125 0.493842 0.00593562 0.869531
0.393772 -0.303791 0.050469 -0.833436 -0.000791915 0.552615
0.452466 -0.31834 0.0627645 0.542204 0.00602974 0.840225
0.393871 -0.322187 0.0506029 -0.830237 -0.00869504 0.557343
0.453278 -0.335245 0.0623114 0.554267 -0.00702321 0.83231
0.394158 -0.340407 0.0507614 -0.823179 -0.0294064 0.567019
0.45415 -0.352401 0.0616226 0.570139 -0.0176028 0.82136
0.394969 -0.358392 0.0504752 -0.814052 -0.0683686 0.576754
0.456167 -0.369815 0.0597465 0.614363 -0.0324993 0.788354
0.40887 -0.370907 0.0612601 -0.506984 -0.105972 0.855416
0.45147 -0.387989 0.0622538 0.462739 -0.0717331 0.883587
0.400968 -0.391086 0.0510528 -0.731268 -0.1248 0.670576
0.454602 -0.405689 0.0590556 0.526166 -0.119567 0.841934
0.405497 -0.409168 0.0515666 -0.660896 -0.117508 0.741221
0.454964 -0.424939 0.0553559 0.565627 -0.183985 0.803875
0.441854 -0.421141 0.0626296 0.224686 -0.186446 0.956428
0.42577 -0.425129 0.0604765 -0.16811 -0.16319 0.972167
0.410571 -0.427814 0.0527467 -0.545507 -0.124348 0.82883
0.438203 -0.438499 0.0576717 0.148144 -0.19637 0.969274
0.420105 -0.444909 0.0551366 -0.282048 -0.14822 0.947882
0.403576 -0.447989 0.0461495 -0.671404 -0.0779231 0.736983
0.4359 -0.456405 0.0538618 0.142731 -0.15592 0.977403
0.417611 -0.465157 0.051856 -0.307824 -0.0914837 0.947035
0.402441 -0.466741 0.0438409 -0.675264 -0.0494402 0.735917
0.436244 -0.474609 0.0514544 0.174551 -0.090864 0.980447
0.420324 -0.484709 0.0507635 -0.217842 -0.0594954 0.974169
0.404907 -0.483858 0.0447676 -0.603576 -0.0495809 0.795763
0.438208 -0.493891 0.0502229 0.209081 -0.0462488 0.976804
0.423172 -0.50167 0.0504474 -0.149025 -0.0463613 0.987746
0.40666 -0.502434 0.0446616 -0.554191 -0.0521377 0.830755
0.437809 -0.514995 0.050123 0.175008 -0.0436972 0.983597
0.419871 -0.518324 0.0493528 -0.260062 -0.0718886 0.962912
0.405226 -0.520495 0.0425239 -0.613794 -0.0860138 0.784766
0.441966 -0.53495 0.0480348 0.251095 -0.0382601 0.967206
0.425915 -0.535153 0.049427 -0.130048 -0.0770496 0.988509
0.433318 -0.553821 0.0478155 -0.032548 -0.0582739 0.99777
0.416117 -0.554023 0.043082 -0.430497 -0.104064 0.896573
0.436717 -0.571788 0.0474149 0.0190328 -0.0202099 0.999615
0.419715 -0.572126 0.0431603 -0.395906 -0.0749806 0.915225
0.43819 -0.589012 0.0473614 0.0169878 -0.0113265 0.999792
0.421932 -0.591072 0.0434095 -0.392797 -0.0438737 0.918578
0.439985 -0.605453 0.0473666 0.0187463 -0.00841912 0.999789
0.423386 -0.610794 0.0436514 -0.403031 -0.0372777 0.914427
0.440375 -0.622612 0.0473552 0.0114975 -0.0105012 0.999879
0.423781 -0.630141 0.0433353 -0.426927 -0.0469513 0.903066
0.439919 -0.641165 0.0475354 -0.0427307 -0.0519965 0.997733
0.423126 -0.647802 0.042387 -0.476173 -0.0797071 0.875732
0.444719 -0.657344 0.0466993 0.0708827 -0.0995308 0.992507
0.44202 -0.67482 0.0429976 -0.0199061 -0.167748 0.985629
0.40035 0.87485 0.0549121 0.475631 0.878556 -0.0437422
0.382997 0.88259 0.0553456 0.302563 0.942392 0.142662
0.363881 0.887697 0.0535673 0.133709 0.943106 0.304421
0.366086 0.890883 0.0345717 0.326905 0.941265 0.0845774
0.32792 0.887802 0.0492746 -0.259576 0.81126 0.523906
0.333626 0.895979 0.034305 -0.0801022 0.938799 0.335023
0.31216 0.89134 0.0309595 -0.31656 0.837836 0.44477
0.417631 0.863087 0.0565668 0.623779 0.75608 -0.198096
0.290546 0.881054 0.0282082 -0.507623 0.643199 0.573248
0.432912 0.847964 0.0569282 0.743629 0.583117 -0.327093
0.27154 0.865989 0.022548 -0.626226 0.414358 0.660415
0.443493 0.833219 0.0582915 0.816547 0.425072 -0.390595
0.271484 0.848252 0.0295324 -0.67729 0.22137 0.701622
0.272584 0.830263 0.033163 -0.694329 0.0955488 0.713287
0.447673 0.814606 0.0543798 0.842852 0.238518 -0.4824
0.274049 0.812565 0.0353789 -0.699897 0.0329063 0.713486
0.444713 0.796822 0.0456356 0.811681 0.106444 -0.57432
0.276712 0.794968 0.0381045 -0.703045 0.0103216 0.71107
0.453898 0.778358 0.0569632 0.84654 0.0694924 -0.527769
0.281931 0.777559 0.0433364 -0.705666 0.00388661 0.708534
0.451589 0.759453 0.0523595 0.821672 0.0293095 -0.569206
0.272141 0.761295 0.0335451 -0.706438 0.00034638 0.707775
0.45 0.741252 0.049742 0.803298 0.0103177 -0.595487
0.270001 0.741963 0.0314064 -0.706355 0.000164301 0.707858
0.446061 0.722762 0.0448232 0.782378 0.0011334 -0.622802
0.27402 0.722313 0.0354263 -0.705861 0.0020274 0.708348
0.455132 0.704498 0.0565658 0.831353 -0.00370251 -0.555733
0.277548 0.703347 0.0389416 -0.703616 0.00392018 0.710569
0.451934 0.686024 0.0522061 0.810919 -0.00877533 -0.585093
0.272051 0.684983 0.0335842 -0.698592 0.0101197 0.715448
0.449827 0.668332 0.0497976 0.800349 -0.0180824 -0.599261
0.275225 0.667024 0.0369389 -0.693832 0.00718006 0.720101
