ply
format ascii 1.0
element vertex 826
property float x
property float y
property float z
property float nx
property float ny
property float nz
end_header
0.450641 -0.507291 0.441775 0.402155 0.207873 0.891661
0.440736 -0.510569 0.444818 -0.0521401 0.0958813 0.994026
0.4318 -0.507424 0.44108 -0.475008 0.0618287 0.877807
-0.441898 -0.506616 0.443855 0.0728581 -0.0720438 -0.994737
-0.454047 -0.504228 0.438662 -0.58253 0.143785 0.799991
0.445186 -0.522308 0.445581 -0.0698015 -0.00685217 0.997537
0.434702 -0.521858 0.44211 -0.580975 -0.152815 0.799447
-0.441653 -0.523309 0.444696 -0.108585 0.0994652 -0.989099
-0.453187 -0.522232 0.441009 -0.552363 -0.111953 0.826052
0.449119 -0.534364 0.445121 0.084532 -0.112615 0.990036
-0.452972 -0.538803 0.441501 -0.426994 -0.340841 0.837558
0.446189 -0.551182 0.441405 -0.245334 -0.225197 0.94292
-0.453112 -0.554875 0.440987 -0.420452 -0.114543 0.900055
0.447927 -0.57036 0.440336 -0.316406 -0.195336 0.928295
-0.453316 -0.571408 0.440951 -0.37099 0.00395764 0.928628
0.448287 -0.587697 0.440994 -0.344904 0.0996822 0.93333
-0.453444 -0.587851 0.442906 -0.364054 0.357047 0.860222
0.448724 -0.604825 0.444192 -0.310454 0.405999 0.859525
-0.452898 -0.604573 0.446385 -0.316763 0.36684 0.874694
-0.462294 -0.604562 0.440223 0.729028 -0.343488 -0.592059
0.467684 -0.616559 0.443345 0.740583 0.353699 0.571344
0.461399 -0.623015 0.450167 0.594878 0.291965 0.748917
0.449388 -0.623295 0.450017 -0.329971 0.244788 0.9117
0.439623 -0.620421 0.442107 0.925396 -0.199661 -0.322145
-0.434031 -0.61656 0.443203 0.823555 0.2391 0.514382
-0.440417 -0.62308 0.450557 0.555274 0.215328 0.803309
-0.452526 -0.623702 0.451764 -0.155517 0.309646 0.938048
-0.462769 -0.620892 0.444356 0.915116 -0.196787 -0.351907
0.439826 -0.635634 0.446007 0.936992 0.0295022 -0.348103
-0.465165 -0.639513 0.449442 0.813268 -0.291058 -0.503866
0.460564 -0.654422 0.457211 0.221493 0.187821 0.956903
0.441036 -0.650791 0.448931 0.873289 0.0523105 -0.484386
-0.444641 -0.654149 0.456787 0.578803 0.0233606 0.815133
-0.449049 -0.671608 0.461018 0.601014 -0.0537657 0.797428
-0.474768 -0.668889 0.444872 0.976024 -0.18956 0.106982
0.479884 -0.688405 0.453168 0.953663 0.180747 0.240538
0.472087 -0.68567 0.45928 0.366513 0.1728 0.914226
-0.448037 -0.684274 0.460346 0.716688 0.0167821 0.697192
-0.476188 -0.68389 0.448869 0.99335 -0.092529 -0.0685154
0.4765 -0.703483 0.461395 0.708378 0.184924 0.681178
-0.447583 -0.698966 0.459893 0.709569 -0.0181986 0.7044
-0.477865 -0.7026 0.452134 0.935644 -0.124456 -0.330274
-0.446743 -0.711474 0.458879 0.759647 0.0426006 0.648939
0.482622 -0.728345 0.462045 0.690021 -0.0536236 0.7218
-0.450105 -0.727791 0.462537 0.720525 -0.0920556 0.687291
0.482101 -0.742476 0.458082 0.789337 -0.596058 0.147183
-0.450701 -0.74329 0.459928 0.874501 -0.443893 0.195468
-0.4743 -0.744404 0.46335 -0.668322 -0.548629 0.502347
0.472276 -0.751487 0.460674 0.360223 -0.850476 0.383316
0.461448 -0.753424 0.46249 0.138763 -0.493779 0.858445
0.457249 -0.753416 0.462088 -0.564287 -0.663931 0.490689
-0.452869 -0.751808 0.455778 0.503482 -0.835139 -0.22147
-0.459872 -0.751602 0.462218 0.290063 -0.88026 0.375508
-0.469479 -0.752083 0.462556 -0.633409 -0.749075 0.194114
-0.47304 -0.751929 0.457544 -0.549091 -0.830943 -0.0896274
0.428156 -0.256199 0.424592 0.0979511 -0.23331 -0.967456
-0.424794 -0.256774 0.424012 -0.0406207 0.167785 0.984986
0.436659 -0.266407 0.426345 -0.292617 -0.159946 -0.942758
0.424979 -0.270206 0.428601 0.147928 -0.130169 -0.980395
0.415526 -0.266995 0.423242 0.522071 -0.140119 -0.841314
-0.415916 -0.269161 0.424131 0.442629 0.0263986 0.896316
-0.428484 -0.270988 0.427944 -0.00891887 0.075921 0.997074
-0.437853 -0.267224 0.423059 0.508529 -0.119969 -0.852646
0.428446 -0.281943 0.429509 0.0267828 -0.0487156 -0.998454
0.416219 -0.281833 0.425514 0.520436 -0.0153229 -0.853763
-0.426638 -0.283311 0.428675 0.241294 -0.0205601 0.970234
-0.43816 -0.28239 0.425062 0.457513 -0.0477001 -0.887923
0.431314 -0.296385 0.429734 -0.0688683 0.0678807 -0.995314
0.419359 -0.296614 0.426266 0.46286 0.112515 -0.879261
-0.437798 -0.297547 0.425545 0.361779 0.0529588 -0.930758
0.434176 -0.308959 0.429099 -0.138009 0.160661 -0.977313
-0.437483 -0.31316 0.424973 0.267573 0.143107 -0.952851
0.430195 -0.325867 0.42534 0.207343 0.24998 -0.94579
-0.437175 -0.329195 0.424104 0.268174 0.23338 -0.934675
0.431872 -0.344858 0.424035 0.284041 0.411286 -0.866121
-0.437005 -0.345445 0.42378 0.368248 0.296563 -0.881161
0.432252 -0.361544 0.423865 0.282651 0.347887 -0.893914
-0.436985 -0.361608 0.423845 0.360293 0.0946194 -0.928028
0.432317 -0.377706 0.423845 0.349458 0.121634 -0.929023
-0.436985 -0.377706 0.423845 0.348223 0.114502 -0.930392
0.432317 -0.393804 0.423845 0.341602 0.121435 -0.931966
-0.436985 -0.393804 0.423845 0.337927 0.110892 -0.934617
0.432317 -0.409902 0.423845 0.355224 -0.133529 -0.925195
-0.437026 -0.41003 0.424047 0.326077 0.0721487 -0.942586
0.432402 -0.426256 0.424089 0.351563 0.0521339 -0.934712
-0.43724 -0.426588 0.424641 0.319036 -0.0469484 -0.946579
0.432385 -0.443427 0.425163 -0.456067 0.317112 0.83153
-0.43724 -0.443095 0.427319 0.310883 -0.431579 -0.846812
0.45078 -0.458772 0.427298 0.854749 0.287777 0.431959
0.44195 -0.463168 0.43226 0.315394 0.375132 0.871666
0.432198 -0.460742 0.429015 -0.459769 0.390093 0.797772
-0.436397 -0.459644 0.431915 0.141729 -0.576239 -0.804898
-0.446991 -0.460542 0.425876 0.829674 -0.392938 -0.396535
0.44729 -0.475213 0.434203 0.528638 0.284908 0.799606
0.433156 -0.478774 0.434877 -0.264031 0.283299 0.92197
0.423207 -0.476304 0.425644 0.85921 -0.198919 -0.47137
-0.417671 -0.471441 0.427158 0.787591 0.2676 0.555059
-0.423728 -0.477433 0.434886 0.647175 0.187084 0.739029
-0.43403 -0.475762 0.4373 -0.105692 -0.328051 -0.938729
-0.447307 -0.477798 0.434301 -0.564227 0.372294 0.736916
0.422994 -0.491125 0.430402 0.799401 -0.152802 -0.581041
0.424023 -0.505559 0.433305 0.877784 0.0618009 -0.475053
-0.428584 -0.50864 0.440092 -0.498293 0.0525918 -0.865412
-0.461656 -0.506592 0.427482 0.973211 -0.0733956 -0.217886
0.463461 -0.523228 0.433536 0.931005 0.101198 0.350697
0.455725 -0.522092 0.442179 0.55117 0.0259973 0.833988
-0.432478 -0.525443 0.441963 -0.555259 0.266914 -0.787683
-0.460827 -0.521661 0.431385 0.950469 0.0945104 -0.296103
0.457831 -0.537551 0.441365 0.412022 -0.103975 0.905222
0.439461 -0.536678 0.441896 -0.471341 -0.198927 0.859224
-0.441786 -0.538823 0.44344 -0.0221326 0.340894 -0.939841
-0.46028 -0.538431 0.432947 0.842487 0.264006 -0.469593
0.458068 -0.554108 0.440347 0.622454 -0.244252 0.743567
0.43609 -0.552239 0.432906 0.798655 0.387398 -0.460514
-0.442083 -0.554428 0.441316 -0.276594 0.298753 -0.913369
-0.460258 -0.554849 0.433149 0.917906 0.0958623 -0.385044
0.458466 -0.570884 0.440219 0.440074 -0.0419459 0.896981
0.43992 -0.569619 0.432783 0.839067 0.292307 -0.458828
-0.442584 -0.570947 0.440965 -0.308154 0.127566 -0.942745
-0.460493 -0.571471 0.433286 0.911338 -0.0042765 -0.411637
0.459243 -0.587739 0.441253 0.439213 0.169705 0.882209
0.44067 -0.587225 0.433384 0.924784 -0.179858 -0.335299
-0.442159 -0.587676 0.441998 0.447057 0.291871 0.845548
-0.46192 -0.590212 0.434603 0.889586 -0.237105 -0.390407
0.46146 -0.606204 0.443876 0.573734 0.367658 0.731886
0.439721 -0.606175 0.435744 0.902519 -0.245436 -0.353866
-0.440035 -0.606196 0.4445 0.676389 0.275992 0.682882
0.467062 -0.633653 0.448081 0.698378 0.310864 0.644695
-0.435906 -0.63339 0.447428 0.828413 0.0803382 0.554326
0.47145 -0.652371 0.448644 0.846371 0.153792 0.509906
-0.436148 -0.650443 0.445115 0.97094 -0.238622 0.0183308
-0.4708 -0.655356 0.450769 0.883344 -0.233498 -0.406427
0.476785 -0.670922 0.448095 0.96272 0.184012 0.198268
0.443976 -0.663252 0.451735 0.847298 0.0148401 -0.53091
-0.441615 -0.667849 0.453561 0.943839 -0.175137 0.280168
0.446364 -0.679575 0.448082 -0.967812 -0.203988 0.147405
-0.442933 -0.682929 0.450671 0.949242 -0.0934604 0.300341
0.484213 -0.700444 0.451543 0.973515 0.154351 0.168653
0.449933 -0.698282 0.449685 -0.955608 -0.172289 0.23902
-0.444231 -0.698686 0.44991 0.990463 -0.0576653 0.125129
0.486245 -0.715325 0.450879 0.983856 0.0237717 0.177376
0.4514 -0.714566 0.452017 -0.985824 -0.166502 0.0206773
-0.445835 -0.715001 0.450579 0.995348 -0.0913424 -0.0306484
-0.481382 -0.718932 0.44989 0.986934 -0.0103059 -0.160793
0.48617 -0.73059 0.450806 0.90988 -0.293194 -0.293522
0.452397 -0.727532 0.455247 -0.974207 -0.203176 0.0981827
-0.447026 -0.731196 0.451518 0.961186 -0.275356 -0.0173591
-0.481093 -0.728364 0.454088 0.986542 0.160324 -0.0321113
0.483634 -0.741071 0.449157 0.694974 -0.528739 -0.487284
0.456221 -0.742328 0.453628 -0.879817 -0.466965 -0.0886888
-0.44965 -0.744118 0.450684 0.669068 -0.555869 -0.493312
-0.476894 -0.74194 0.45317 0.887111 0.450025 -0.102527
0.477705 -0.749686 0.451714 0.485145 -0.784407 -0.386445
0.47067 -0.755589 0.452741 0.29293 -0.885709 -0.360155
0.464986 -0.7564 0.456942 0.724961 -0.276732 0.630754
0.458466 -0.753321 0.458433 0.390821 -0.568226 0.72414
-0.454665 -0.751605 0.449507 0.4206 -0.683617 -0.596458
-0.45992 -0.755735 0.453472 -0.0241821 -0.827882 -0.560381
-0.466878 -0.755917 0.45734 -0.319113 -0.886265 -0.335711
0.41257 0.00277208 0.405496 0.0963698 0.0682824 -0.993001
0.421052 -0.00860674 0.407593 -0.0690811 -0.0293897 -0.997178
0.409655 -0.0114865 0.406339 0.227888 0.0616426 -0.971734
-0.412794 -0.0086745 0.406753 0.0689059 -0.0397697 -0.99683
-0.424609 -0.0118027 0.404487 0.534923 -0.0521642 -0.843289
0.413352 -0.0242577 0.407324 0.331821 0.0518643 -0.941916
-0.422766 -0.0244915 0.40685 0.521842 -0.0586307 -0.851025
0.415192 -0.0395812 0.407805 0.439046 0.0270102 -0.898059
-0.421836 -0.0398229 0.407746 0.337994 -0.00115982 -0.941147
0.41575 -0.0554998 0.407861 0.102816 0.0600363 -0.992887
-0.421384 -0.055589 0.407951 0.205048 0.0787321 -0.97558
0.416027 -0.071624 0.407708 0.201491 0.186516 -0.961568
-0.421077 -0.071624 0.407708 0.228765 0.199005 -0.952924
0.416197 -0.0878757 0.407682 0.365178 0.285181 -0.886181
-0.420907 -0.0878757 0.407682 0.367738 0.279232 -0.887016
0.416219 -0.104037 0.407746 0.360387 0.0913643 -0.928318
-0.421003 -0.104165 0.407949 0.456573 0.0040467 -0.889677
0.416219 -0.120135 0.407746 0.349514 0.116127 -0.929707
-0.421538 -0.120612 0.408834 0.471069 -0.0710943 -0.879227
0.416219 -0.136233 0.407746 0.338121 0.122214 -0.933133
-0.421963 -0.136153 0.41117 -0.176358 0.31805 0.931527
0.416219 -0.152332 0.407746 0.347864 -0.115856 -0.930359
-0.422641 -0.151429 0.412872 -0.171187 0.196306 0.965484
-0.431423 -0.14957 0.409634 0.700987 -0.388328 -0.598179
0.416346 -0.168557 0.407788 0.439038 -0.12274 -0.890045
-0.42359 -0.167829 0.413229 -0.119358 0.137483 0.983286
-0.435853 -0.166054 0.408253 0.704414 -0.223328 -0.673739
0.416478 -0.185206 0.408151 0.425196 -0.347922 -0.835559
-0.423867 -0.1844 0.413623 -0.0139301 0.055646 0.998353
-0.436215 -0.184016 0.409608 0.593277 -0.110423 -0.797389
0.434746 -0.202853 0.409806 -0.317514 -0.370035 -0.873074
0.424521 -0.20521 0.413257 0.175393 -0.231783 -0.956825
0.415942 -0.20198 0.409281 0.444136 -0.28211 -0.850386
-0.423825 -0.200754 0.413986 -0.0168338 0.0945011 0.995382
-0.436431 -0.200691 0.410291 0.528007 -0.0672301 -0.846575
0.427596 -0.218564 0.415174 0.118568 -0.296061 -0.947781
0.415546 -0.218296 0.410983 0.598108 -0.229136 -0.767961
-0.423121 -0.217491 0.415285 0.0155933 0.166447 0.985927
-0.436516 -0.21744 0.411204 0.654751 -0.122048 -0.745926
0.431346 -0.236736 0.418559 -0.0122952 -0.253936 -0.967143
0.416359 -0.234467 0.414299 0.591997 -0.237479 -0.770158
-0.420883 -0.23656 0.418278 0.0825229 0.231488 0.969331
-0.436302 -0.234287 0.414299 0.574773 -0.242859 -0.781445
0.451056 -0.245114 0.411777 -0.794032 -0.252926 -0.552758
0.442121 -0.249645 0.420421 -0.515991 -0.234035 -0.824003
0.416423 -0.250999 0.419517 0.502474 -0.222944 -0.835354
0.406964 -0.250424 0.409279 0.894448 -0.178064 -0.41019
-0.401557 -0.244688 0.410016 0.826172 0.110652 0.552446
-0.410578 -0.249904 0.419025 0.511286 0.154313 0.845443
-0.436694 -0.251063 0.419475 0.41355 -0.227482 -0.881606
-0.446239 -0.250424 0.409279 0.888429 -0.192309 -0.416786
0.406707 -0.265534 0.413538 0.888352 -0.0978157 -0.448622
-0.446571 -0.265713 0.413285 0.895149 -0.12803 -0.426986
0.44148 -0.280678 0.426321 -0.430524 -0.0734709 -0.899584
0.407394 -0.280401 0.416689 0.861531 0.0291087 -0.50687
-0.417423 -0.28535 0.425882 0.555013 -0.109078 0.824659
-0.446703 -0.281445 0.415944 0.868691 -0.0426335 -0.493517
0.44336 -0.296232 0.426008 -0.49045 0.01901 -0.871262
-0.426201 -0.298097 0.427735 0.280068 -0.115788 0.952972
-0.446614 -0.297126 0.417166 0.858775 0.0215955 -0.511897
0.443283 -0.312087 0.425177 -0.480402 0.0926994 -0.872136
0.423735 -0.311575 0.426008 0.437126 0.202261 -0.876362
-0.426035 -0.313364 0.425552 0.405917 -0.143973 0.902498
-0.446302 -0.312457 0.417607 0.777372 0.123238 -0.616851
0.44279 -0.328734 0.424249 -0.292298 0.312109 -0.903964
0.41973 -0.326984 0.416659 0.764247 0.428368 -0.482107
-0.426187 -0.329347 0.424281 0.221804 -0.276292 0.935129
-0.445472 -0.328185 0.416998 0.853767 0.219821 -0.471976
0.442846 -0.345382 0.423886 -0.352896 0.28741 -0.890427
0.423709 -0.344211 0.41648 0.88104 0.266993 -0.390492
-0.426326 -0.34551 0.423845 0.284253 -0.27197 0.919365
-0.444544 -0.344832 0.41643 0.84233 0.357108 -0.403675
0.442752 -0.361608 0.423845 -0.334838 0.154246 -0.929566
0.424917 -0.361353 0.416604 0.876185 0.176814 -0.448371
-0.42655 -0.361608 0.423845 0.332944 -0.148309 0.931211
-0.444182 -0.36148 0.416562 0.895332 0.133094 -0.425048
0.442528 -0.377706 0.423845 -0.336138 0.134068 -0.932221
0.425162 -0.377706 0.416689 0.92777 0.125356 -0.351466
-0.426773 -0.377706 0.423845 0.337009 -0.128973 0.932626
-0.444139 -0.377706 0.416689 0.930654 0.116496 -0.346861
0.442453 -0.393804 0.423845 -0.341069 0.121187 -0.932194
0.425162 -0.393804 0.416689 0.898373 0.123047 -0.421646
-0.426848 -0.393804 0.423845 0.334488 -0.116426 0.935181
-0.444139 -0.393804 0.416689 0.931931 0.117425 -0.343096
0.442517 -0.409966 0.423865 -0.348218 0.0918563 -0.932902
0.425162 -0.409902 0.416689 0.93633 -0.116274 -0.331309
-0.426869 -0.409966 0.424057 0.411456 -0.0924279 0.906731
-0.44416 -0.409966 0.416753 0.925686 -0.152261 -0.346298
0.442855 -0.426652 0.424302 -0.347911 -0.0148206 -0.937411
0.42514 -0.426064 0.416753 0.920177 -0.139001 -0.365995
-0.426827 -0.426193 0.424664 0.287915 -0.00236 0.957653
-0.444395 -0.426588 0.417113 0.907973 0.00361654 -0.419012
0.444443 -0.445559 0.426528 0.44638 0.358157 0.820042
0.42497 -0.44275 0.417134 0.912624 -0.293329 -0.284736
-0.425934 -0.442737 0.426153 0.455136 0.347597 0.819773
-0.446023 -0.445636 0.418548 0.848708 -0.466664 -0.248835
0.423699 -0.461799 0.418914 0.941744 -0.230451 -0.244971
-0.423401 -0.46088 0.428869 0.700205 0.321953 0.637228
0.454792 -0.470593 0.426836 0.684575 0.294087 0.666986
0.454202 -0.488441 0.431779 0.790018 0.291079 0.539578
-0.419544 -0.488243 0.431052 0.865381 0.0525866 0.498348
-0.457149 -0.49184 0.43157 -0.803288 0.27825 0.526597
-0.460597 -0.496054 0.420194 0.98279 -0.184312 -0.0123924
0.462826 -0.510534 0.423123 0.966971 0.137603 -0.214551
0.460056 -0.507172 0.432888 0.922502 0.201103 0.329467
-0.419522 -0.505844 0.428517 0.921131 -0.196439 0.336051
0.427372 -0.517939 0.435708 0.85074 0.156123 -0.501864
-0.42475 -0.519451 0.435908 -0.739 0.187064 -0.647214
0.465105 -0.538828 0.433124 0.948543 -0.151415 0.278099
0.430226 -0.534209 0.431947 0.921994 0.283305 -0.263942
-0.430767 -0.536005 0.436233 -0.638009 0.318941 -0.700872
0.465657 -0.554811 0.432838 0.861526 -0.283191 0.421396
-0.433483 -0.554147 0.433776 -0.825243 0.333045 -0.456131
0.465909 -0.571012 0.432904 0.87727 -0.181947 0.444177
-0.434769 -0.57082 0.433149 0.949071 0.096781 0.299829
0.466793 -0.587459 0.43344 0.876891 0.0628772 0.476559
-0.43449 -0.587394 0.433631 0.928476 0.2495 0.275105
0.469045 -0.603127 0.433864 0.954104 0.221141 0.201948
-0.432452 -0.603127 0.433928 0.90246 0.251706 0.349586
-0.46563 -0.607143 0.431598 0.991364 -0.130754 -0.0100451
0.470838 -0.619008 0.434851 0.94341 0.236822 0.23215
0.436214 -0.622343 0.433791 -0.957483 -0.0108149 -0.288285
-0.431387 -0.618842 0.434417 0.959115 0.145514 0.242744
-0.466195 -0.620073 0.434399 0.975611 -0.126109 -0.179664
0.47258 -0.636149 0.436557 0.978102 0.16103 -0.131856
0.436291 -0.632178 0.437942 -0.998263 0.00215751 -0.0588716
-0.432003 -0.634829 0.435203 0.959734 -0.18847 -0.208301
-0.467454 -0.636565 0.437104 0.971609 -0.145446 0.186604
0.47482 -0.652512 0.436767 0.966797 0.102111 -0.234257
0.44009 -0.648495 0.436426 -0.949175 -0.171711 -0.263785
-0.435 -0.647057 0.434196 0.948817 -0.210084 -0.23582
-0.471165 -0.655363 0.439146 0.918678 -0.11513 0.377856
0.480969 -0.684235 0.442276 0.982501 0.0997871 0.157272
0.476151 -0.667103 0.433977 0.880422 0.108389 -0.461637
0.442496 -0.665622 0.442006 -0.976213 -0.192139 -0.100452
-0.439872 -0.663726 0.439315 0.971841 -0.227252 -0.0623053
-0.473175 -0.671754 0.435216 -0.707439 -0.0195031 -0.706506
0.44681 -0.679643 0.436101 -0.78927 -0.22475 -0.571438
-0.445473 -0.682162 0.438667 0.877434 -0.143099 -0.457855
-0.475671 -0.684274 0.437659 0.942788 -0.0547145 0.328872
0.482362 -0.699656 0.439618 0.914485 0.124997 -0.384829
0.452004 -0.695855 0.436899 -0.713812 -0.273305 -0.644808
-0.448963 -0.699286 0.438819 0.782306 -0.104813 -0.614013
-0.477315 -0.699516 0.439852 0.913154 -0.0479492 0.404784
0.481994 -0.71768 0.439376 0.639283 -0.183724 -0.746702
0.454121 -0.713537 0.441408 -0.88557 -0.232738 -0.401994
-0.451231 -0.717848 0.439627 0.65774 -0.235619 -0.715445
-0.478027 -0.715376 0.44203 0.918701 0.0462769 0.392234
0.48312 -0.732977 0.443178 0.587258 -0.402941 -0.701973
0.476995 -0.727536 0.437235 0.365411 -0.355767 -0.860177
0.465019 -0.726833 0.437583 -0.198393 -0.313304 -0.928698
0.45549 -0.729174 0.446474 -0.904699 -0.276411 -0.324217
-0.450447 -0.733753 0.443641 0.65942 -0.39186 -0.641569
-0.456631 -0.727803 0.437453 0.325009 -0.367514 -0.87138
-0.468491 -0.727261 0.437745 -0.257722 -0.314292 -0.913674
-0.477895 -0.730014 0.445911 0.912942 0.231286 0.33622
0.475969 -0.740923 0.443096 0.482238 -0.575504 -0.660486
0.464 -0.742752 0.444682 -0.373685 -0.550721 -0.746368
-0.457316 -0.741685 0.44303 0.508288 -0.540224 -0.670672
-0.469312 -0.7429 0.444572 -0.456391 -0.577321 -0.677058
0.471234 -0.751116 0.447087 -0.0569742 -0.646383 -0.760883
0.463522 -0.752919 0.45128 0.78888 -0.330132 0.518345
-0.461386 -0.751579 0.446807 -0.206212 -0.58717 -0.782756
-0.46899 -0.752634 0.451289 -0.225442 -0.851897 -0.472702
0.36092 0.0837023 0.393875 -0.130328 -0.503702 -0.85399
0.342304 0.0871613 0.393914 -0.0753439 -0.504498 -0.860119
0.325145 0.0883742 0.394118 -0.038926 -0.493374 -0.868946
0.308429 0.0885447 0.394502 -0.0172844 -0.488407 -0.872445
0.292203 0.0885447 0.39463 -0.00587437 -0.484477 -0.874784
0.276105 0.0885447 0.39463 -0.0010842 -0.483707 -0.875229
0.260007 0.0885447 0.39463 -0.000226044 -0.483681 -0.875244
0.243909 0.0885447 0.39463 -0.00022603 -0.483681 -0.875244
0.227811 0.0885447 0.39463 -0.000226029 -0.483681 -0.875244
0.211713 0.0885447 0.39463 -0.00022603 -0.483681 -0.875244
0.195614 0.0885447 0.39463 -0.000226031 -0.483681 -0.875244
0.179516 0.0885447 0.39463 -0.00022603 -0.483681 -0.875244
0.163418 0.0885447 0.39463 -0.000226028 -0.483681 -0.875244
0.14732 0.0885447 0.39463 -0.000226028 -0.483681 -0.875244
0.131222 0.0885447 0.39463 -0.000226029 -0.483681 -0.875244
0.115124 0.0885447 0.39463 -0.00022603 -0.483681 -0.875244
0.0990253 0.0885447 0.39463 -0.00022603 -0.483681 -0.875244
0.0829272 0.0885447 0.39463 -0.000226029 -0.483681 -0.875244
0.066829 0.0885447 0.39463 -0.000226029 -0.483681 -0.875244
0.0507308 0.0885447 0.39463 -0.00022603 -0.483681 -0.875244
0.0346326 0.0885447 0.39463 -0.00022603 -0.483681 -0.875244
0.0185345 0.0885447 0.39463 -0.00022603 -0.483681 -0.875244
0.00243629 0.0885447 0.39463 -0.00022603 -0.483681 -0.875244
-0.0136619 0.0885447 0.39463 -0.00022603 -0.483681 -0.875244
-0.0297601 0.0885447 0.39463 -0.000225992 -0.483681 -0.875244
-0.0458582 0.0885447 0.39463 -0.000225957 -0.483681 -0.875244
-0.0619564 0.0885447 0.39463 -0.000225907 -0.483681 -0.875244
-0.0780546 0.0885447 0.39463 -0.00022585 -0.483681 -0.875244
-0.0941528 0.0885447 0.39463 -0.000225849 -0.483681 -0.875244
-0.110251 0.0885447 0.39463 -0.000225849 -0.483681 -0.875244
-0.126349 0.0885447 0.39463 -0.000225848 -0.483681 -0.875244
-0.142447 0.0885447 0.39463 -0.000225848 -0.483681 -0.875244
-0.158545 0.0885447 0.39463 -0.000225849 -0.483681 -0.875244
-0.174644 0.0885447 0.39463 -0.000225849 -0.483681 -0.875244
-0.190742 0.0885447 0.39463 -0.000225849 -0.483681 -0.875244
-0.20684 0.0885447 0.39463 -0.00022585 -0.483681 -0.875244
-0.222938 0.0885447 0.39463 -0.00022585 -0.483681 -0.875244
-0.239036 0.0885447 0.39463 -0.00022585 -0.483681 -0.875244
-0.255134 0.0885447 0.39463 -0.00022585 -0.483681 -0.875244
-0.271233 0.0885447 0.39463 -0.000225849 -0.483681 -0.875244
-0.287331 0.0885447 0.39463 0.00137101 -0.484193 -0.87496
-0.303429 0.0885447 0.39463 0.00516824 -0.486359 -0.873744
-0.319612 0.0883538 0.394565 0.0125906 -0.49107 -0.871029
-0.33583 0.0878468 0.394745 0.0253201 -0.498314 -0.866627
-0.351541 0.086818 0.395192 0.0624186 -0.515416 -0.854664
-0.366957 0.0858965 0.394438 0.13607 -0.53679 -0.832671
-0.380933 0.0840264 0.392686 0.237695 -0.565095 -0.790044
0.408325 0.0667515 0.392566 -0.384432 -0.472209 -0.793241
0.389656 0.0710643 0.39521 -0.218173 -0.450221 -0.865853
0.372647 0.0711648 0.398296 -0.122425 -0.365596 -0.922687
0.358918 0.0683517 0.400759 -0.0666984 -0.25971 -0.963381
0.34626 0.0713861 0.400366 -0.0456231 -0.267783 -0.962398
0.330123 0.0726769 0.400379 -0.024558 -0.260558 -0.965146
0.313731 0.0730428 0.400528 -0.0110562 -0.249804 -0.968233
0.297569 0.0730428 0.400592 -0.00383613 -0.243589 -0.969871
0.281471 0.0730428 0.400592 -0.000474697 -0.240074 -0.970754
0.265373 0.0730428 0.400592 0.000431548 -0.239813 -0.970819
0.249275 0.0730428 0.400592 0.000431538 -0.239813 -0.970819
0.233177 0.0730428 0.400592 0.000431534 -0.239813 -0.970819
0.217079 0.0730428 0.400592 0.000431534 -0.239813 -0.970819
0.200981 0.0730428 0.400592 0.000431534 -0.239813 -0.970819
0.184883 0.0730428 0.400592 0.000431534 -0.239813 -0.970819
0.168784 0.0730428 0.400592 0.000431534 -0.239813 -0.970819
0.152686 0.0730428 0.400592 0.000431534 -0.239813 -0.970819
0.136588 0.0730428 0.400592 0.000431534 -0.239813 -0.970819
0.12049 0.0730428 0.400592 0.000431534 -0.239813 -0.970819
0.104392 0.0730428 0.400592 0.000431534 -0.239813 -0.970819
0.0882936 0.0730428 0.400592 0.000431534 -0.239813 -0.970819
0.0721954 0.0730428 0.400592 0.000431534 -0.239813 -0.970819
0.0560972 0.0730428 0.400592 0.000431534 -0.239813 -0.970819
0.0399991 0.0730428 0.400592 0.000431534 -0.239813 -0.970819
0.0239009 0.0730428 0.400592 0.000431534 -0.239813 -0.970819
0.00780272 0.0730428 0.400592 0.000431534 -0.239813 -0.970819
-0.00829545 0.0730428 0.400592 0.000431534 -0.239813 -0.970819
-0.0243936 0.0730428 0.400592 0.000431537 -0.239813 -0.970819
-0.0404918 0.0730428 0.400592 0.000431516 -0.239813 -0.970819
-0.05659 0.0730428 0.400592 0.000431492 -0.239813 -0.970819
-0.0726881 0.0730428 0.400592 0.000431471 -0.239813 -0.970819
-0.0887863 0.0730428 0.400592 0.000431471 -0.239813 -0.970819
-0.104884 0.0730428 0.400592 0.000431471 -0.239813 -0.970819
-0.120983 0.0730428 0.400592 0.000431471 -0.239813 -0.970819
-0.137081 0.0730428 0.400592 0.00043147 -0.239813 -0.970819
-0.153179 0.0730428 0.400592 0.000431471 -0.239813 -0.970819
-0.169277 0.0730428 0.400592 0.000431472 -0.239813 -0.970819
-0.185375 0.0730428 0.400592 0.000431472 -0.239813 -0.970819
-0.201474 0.0730428 0.400592 0.000431471 -0.239813 -0.970819
-0.217572 0.0730428 0.400592 0.000431471 -0.239813 -0.970819
-0.23367 0.0730428 0.400592 0.000431472 -0.239813 -0.970819
-0.249768 0.0730428 0.400592 0.000431472 -0.239813 -0.970819
-0.265866 0.0730428 0.400592 0.000431487 -0.239813 -0.970819
-0.281964 0.0730428 0.400592 0.000431494 -0.239813 -0.970819
-0.298063 0.0730428 0.400592 0.00162159 -0.241232 -0.970466
-0.314161 0.0730428 0.400592 0.00243364 -0.24526 -0.969454
-0.330259 0.0729683 0.400592 0.0036567 -0.254676 -0.96702
-0.346268 0.0727153 0.400682 0.0190699 -0.273661 -0.961637
-0.362157 0.0723042 0.40052 0.0617286 -0.310768 -0.948479
-0.378166 0.0721484 0.399395 0.153274 -0.376585 -0.913614
-0.395494 0.0730484 0.39476 0.323856 -0.475628 -0.81786
-0.410641 0.0674166 0.391926 0.539566 -0.455853 -0.707861
0.419378 0.0532394 0.39509 -0.491542 -0.354311 -0.795519
0.407059 0.0517984 0.399664 -0.262868 -0.279219 -0.923546
0.394422 0.0554494 0.400328 -0.151828 -0.258734 -0.953942
0.378588 0.0566634 0.401369 -0.0739881 -0.186107 -0.97974
0.363103 0.0561778 0.402093 -0.033652 -0.0972023 -0.994696
0.348108 0.0560886 0.402317 -0.00785671 -0.0390657 -0.999206
0.332653 0.0567018 0.402338 -0.000443167 -0.0107708 -0.999942
0.316648 0.0569446 0.402381 -0.0016763 0.00479331 -0.999987
0.30055 0.0569446 0.402381 -0.00133163 0.011925 -0.999928
0.284452 0.0569446 0.402381 -0.000408677 0.0136395 -0.999907
0.268354 0.0569446 0.402381 -0.000100845 0.0137549 -0.999905
0.252256 0.0569446 0.402381 -0.000100851 0.0137549 -0.999905
0.236157 0.0569446 0.402381 -0.000100872 0.0137549 -0.999905
0.220059 0.0569446 0.402381 -0.000100874 0.0137549 -0.999905
0.203961 0.0569446 0.402381 -0.000100875 0.0137549 -0.999905
0.187863 0.0569446 0.402381 -0.000100874 0.0137549 -0.999905
0.171765 0.0569446 0.402381 -0.000100872 0.0137549 -0.999905
0.155667 0.0569446 0.402381 -0.000100874 0.0137549 -0.999905
0.139568 0.0569446 0.402381 -0.000100874 0.0137549 -0.999905
0.12347 0.0569446 0.402381 -0.000100873 0.0137549 -0.999905
0.107372 0.0569446 0.402381 -0.000100873 0.0137549 -0.999905
0.0912738 0.0569446 0.402381 -0.000100873 0.0137549 -0.999905
0.0751756 0.0569446 0.402381 -0.000100873 0.0137549 -0.999905
0.0590775 0.0569446 0.402381 -0.000100873 0.0137549 -0.999905
0.0429793 0.0569446 0.402381 -0.000100873 0.0137549 -0.999905
0.0268811 0.0569446 0.402381 -0.000100873 0.0137549 -0.999905
0.0107829 0.0569446 0.402381 -0.000100873 0.0137549 -0.999905
-0.00531523 0.0569446 0.402381 -0.000100873 0.0137549 -0.999905
-0.0214134 0.0569446 0.402381 -0.000100967 0.0137549 -0.999905
-0.0375116 0.0569446 0.402381 -0.000101017 0.013755 -0.999905
-0.0536086 0.0569446 0.402381 -0.000100934 0.013755 -0.999905
-0.0697068 0.0569446 0.402381 -0.000100958 0.013755 -0.999905
-0.085805 0.0569446 0.402381 -0.000100983 0.013755 -0.999905
-0.101903 0.0569446 0.402381 -0.000100984 0.013755 -0.999905
-0.118001 0.0569446 0.402381 -0.000100984 0.013755 -0.999905
-0.134099 0.0569446 0.402381 -0.000100983 0.013755 -0.999905
-0.150198 0.0569446 0.402381 -0.000100982 0.013755 -0.999905
-0.166296 0.0569446 0.402381 -0.000100984 0.013755 -0.999905
-0.182394 0.0569446 0.402381 -0.000100983 0.013755 -0.999905
-0.198492 0.0569446 0.402381 -0.000100981 0.013755 -0.999905
-0.21459 0.0569446 0.402381 -0.000100983 0.013755 -0.999905
-0.230689 0.0569446 0.402381 -0.000100984 0.013755 -0.999905
-0.246787 0.0569446 0.402381 -0.000100941 0.0137549 -0.999905
-0.262885 0.0569446 0.402381 -0.000100893 0.0137549 -0.999905
-0.278983 0.0569446 0.402381 -0.000100855 0.0137549 -0.999905
-0.295081 0.0569446 0.402381 -0.000582809 0.0136013 -0.999907
-0.311179 0.0569446 0.402381 -0.00343563 0.0112081 -0.999931
-0.327363 0.0568802 0.402403 -0.0112624 0.00406196 -0.999928
-0.343695 0.056817 0.402572 -0.0173144 -0.0202799 -0.999644
-0.360007 0.0568802 0.40285 -0.00518392 -0.0672423 -0.997723
-0.376237 0.056983 0.402692 0.0700957 -0.154911 -0.985439
-0.392663 0.0569954 0.401141 0.200171 -0.24596 -0.948386
-0.408259 0.0562286 0.397706 0.427042 -0.307013 -0.850517
-0.420935 0.0553478 0.390124 0.681798 -0.346646 -0.644196
0.411491 0.0391898 0.401081 -0.255602 -0.187954 -0.948336
0.396331 0.0403541 0.402338 -0.0648327 -0.0928449 -0.993568
0.381459 0.0418109 0.402389 0.00268975 0.0028971 -0.999992
0.366578 0.0420921 0.402102 0.043185 0.0933517 -0.994696
0.351102 0.0414743 0.401391 0.0418529 0.201075 -0.978681
0.335127 0.0413309 0.400805 0.027663 0.268904 -0.96277
0.319033 0.0414427 0.400592 0.00980251 0.288232 -0.95751
0.302935 0.0414427 0.400592 -0.000296454 0.295589 -0.955315
0.286837 0.0414427 0.400592 -0.00247462 0.297504 -0.954717
0.270739 0.0414427 0.400592 -0.00258927 0.297632 -0.954677
0.254641 0.0414427 0.400592 -0.00258913 0.297632 -0.954677
0.238542 0.0414427 0.400592 -0.00258911 0.297632 -0.954677
0.222444 0.0414427 0.400592 -0.00258912 0.297632 -0.954677
0.206346 0.0414427 0.400592 -0.00258912 0.297632 -0.954677
0.190248 0.0414427 0.400592 -0.00258912 0.297632 -0.954677
0.17415 0.0414427 0.400592 -0.00258912 0.297632 -0.954677
0.158052 0.0414427 0.400592 -0.00258912 0.297632 -0.954677
0.141953 0.0414427 0.400592 -0.00258912 0.297632 -0.954677
0.125855 0.0414427 0.400592 -0.00258912 0.297632 -0.954677
0.109757 0.0414427 0.400592 -0.00258912 0.297632 -0.954677
0.0936589 0.0414427 0.400592 -0.00258912 0.297632 -0.954677
0.0775607 0.0414427 0.400592 -0.00258912 0.297632 -0.954677
0.0614625 0.0414427 0.400592 -0.00258912 0.297632 -0.954677
0.0453644 0.0414427 0.400592 -0.00258912 0.297632 -0.954677
0.0292662 0.0414427 0.400592 -0.00258912 0.297632 -0.954677
0.013168 0.0414427 0.400592 -0.00258912 0.297632 -0.954677
-0.00293015 0.0414427 0.400592 -0.00258912 0.297632 -0.954677
-0.0190283 0.0414427 0.400592 -0.00258912 0.297632 -0.954677
-0.0351265 0.0414427 0.400592 -0.00258923 0.297632 -0.954677
-0.0512247 0.0414427 0.400592 -0.00258935 0.297632 -0.954677
-0.0673228 0.0414427 0.400592 -0.00258943 0.297632 -0.954677
-0.083421 0.0414427 0.400592 -0.00258941 0.297632 -0.954677
-0.0995192 0.0414427 0.400592 -0.00258941 0.297632 -0.954677
-0.115617 0.0414427 0.400592 -0.00258941 0.297632 -0.954677
-0.131716 0.0414427 0.400592 -0.00258941 0.297632 -0.954677
-0.147814 0.0414427 0.400592 -0.0025894 0.297632 -0.954677
-0.163912 0.0414427 0.400592 -0.00258941 0.297632 -0.954677
-0.18001 0.0414427 0.400592 -0.00258942 0.297632 -0.954677
-0.196108 0.0414427 0.400592 -0.00258941 0.297632 -0.954677
-0.212206 0.0414427 0.400592 -0.0025894 0.297632 -0.954677
-0.228305 0.0414427 0.400592 -0.00258941 0.297632 -0.954677
-0.244403 0.0414427 0.400592 -0.00258937 0.297632 -0.954677
-0.260501 0.0414427 0.400592 -0.00258941 0.297632 -0.954677
-0.276598 0.0414427 0.400592 -0.00258987 0.297632 -0.954677
-0.292696 0.0414427 0.400592 -0.00322022 0.297788 -0.954627
-0.308794 0.0414427 0.400592 -0.0101242 0.295899 -0.955166
-0.325063 0.041314 0.400634 -0.0364129 0.291591 -0.95585
-0.341949 0.0406974 0.400954 -0.0708978 0.27161 -0.959792
-0.358853 0.0404885 0.401997 -0.0961355 0.17982 -0.978991
-0.375117 0.0408973 0.403243 -0.0367473 0.0391724 -0.998557
-0.391283 0.0409357 0.403425 0.0980216 -0.0842335 -0.991613
-0.407155 0.0406296 0.401137 0.338232 -0.150535 -0.928945
-0.421055 0.0401564 0.394399 0.647877 -0.206647 -0.73318
0.416003 0.0217184 0.402627 -0.200447 -0.122524 -0.972013
0.398766 0.0251288 0.402423 0.0458668 0.0655034 -0.996798
0.382673 0.0274496 0.40148 0.130783 0.222898 -0.966029
0.370309 0.0308679 0.401095 0.129854 0.257506 -0.957512
-0.374567 0.0249414 0.401386 -0.189836 0.266275 -0.945018
-0.389814 0.0252723 0.403685 -0.0627173 0.0739164 -0.99529
-0.405785 0.0242751 0.403237 0.207959 -0.0860323 -0.974347
-0.420558 0.0235602 0.398366 0.596431 -0.159253 -0.786707
0.436138 0.0126715 0.395197 -0.807231 -0.110173 -0.579862
0.426447 0.00824581 0.403317 -0.433284 -0.122633 -0.892875
0.401862 0.011296 0.403161 0.148442 0.06579 -0.98673
-0.387761 0.0119793 0.402337 -0.311834 0.227169 -0.92258
-0.402026 0.00859928 0.404596 -0.0273751 0.000406725 -0.999625
-0.419261 0.00523283 0.402989 0.44789 -0.126218 -0.885135
-0.430447 0.00707133 0.393024 0.853672 -0.111978 -0.508631
0.398018 -0.00449157 0.398875 0.566958 0.216749 -0.794719
-0.43081 -0.00885406 0.39658 0.809694 -0.0907211 -0.579797
0.425426 -0.0232865 0.407704 -0.273443 -0.0231494 -0.961609
0.403262 -0.0230121 0.398901 0.67379 0.189396 -0.714238
-0.410254 -0.0244147 0.408224 -0.198169 0.0197348 -0.979969
-0.431269 -0.0244023 0.398785 0.875113 -0.0533113 -0.480973
0.426717 -0.0395168 0.407746 -0.349587 0.0247385 -0.936577
0.405924 -0.0393892 0.400295 0.691339 0.142375 -0.708364
-0.410231 -0.0403604 0.408656 -0.265213 0.0599535 -0.962324
-0.430754 -0.0396444 0.400159 0.872246 -0.00533238 -0.489038
0.426951 -0.0557426 0.407746 -0.472634 0.0149486 -0.881132
0.4069 -0.0548866 0.401137 0.811102 0.121058 -0.572239
-0.410139 -0.055921 0.408074 -0.370592 0.0863477 -0.924773
-0.430204 -0.0548866 0.401137 0.733116 0.0462138 -0.678531
0.426951 -0.0718408 0.407746 -0.216305 0.204558 -0.954656
0.407731 -0.0706144 0.400825 0.846425 0.148199 -0.51147
-0.410154 -0.0718408 0.407746 -0.199157 0.22736 -0.953228
-0.429374 -0.0706144 0.400825 0.869301 0.149618 -0.471094
0.426877 -0.0879389 0.407746 -0.24774 0.23994 -0.938645
0.408659 -0.0872614 0.400331 0.838694 0.342094 -0.423749
-0.410228 -0.0879389 0.407746 -0.247977 0.238484 -0.938953
-0.428446 -0.0872614 0.400331 0.842605 0.33508 -0.421591
0.426653 -0.104037 0.407746 -0.319548 0.147456 -0.936027
0.40902 -0.10391 0.400464 0.890055 0.122735 -0.439019
-0.410473 -0.104101 0.407959 -0.311483 0.117586 -0.942949
-0.428318 -0.104037 0.400505 0.900763 0.055913 -0.430697
0.42643 -0.120135 0.407746 -0.333719 0.133361 -0.933192
0.409063 -0.120135 0.400591 0.930327 0.115892 -0.347938
-0.410688 -0.120174 0.408589 0.437777 0.222163 0.871203
-0.429352 -0.120893 0.401282 0.883455 -0.237708 -0.403736
0.426355 -0.136233 0.407746 -0.418761 0.119785 -0.900161
0.409063 -0.136233 0.400591 0.933112 -0.122193 -0.338187
-0.41086 -0.136055 0.409348 0.459574 0.326409 0.825983
-0.431975 -0.139357 0.4035 0.752491 -0.374769 -0.541577
0.426418 -0.152396 0.407767 -0.334686 -0.142635 -0.931472
0.409063 -0.152332 0.400591 0.929679 -0.116151 -0.349581
-0.411166 -0.152115 0.409867 0.581343 0.230159 0.780428
0.426779 -0.169017 0.408002 -0.398027 0.0601357 -0.915401
0.409063 -0.16843 0.400591 0.928282 -0.0913758 -0.360477
-0.411346 -0.168365 0.410089 0.567972 0.10924 0.815766
-0.442422 -0.169783 0.396644 0.975841 -0.132162 -0.173975
0.42823 -0.187999 0.409186 -0.297246 -0.445962 -0.844253
0.409128 -0.184592 0.400613 0.88691 -0.290136 -0.359461
-0.411346 -0.184528 0.410132 0.546899 0.055551 0.835354
-0.443647 -0.18435 0.399892 0.960702 -0.0954698 -0.260649
0.40908 -0.200907 0.400846 0.942856 -0.245821 -0.224932
-0.411069 -0.200754 0.410334 0.581694 0.052856 0.811689
-0.444086 -0.200562 0.401017 0.990285 -0.0657576 -0.12252
0.448301 -0.221205 0.404805 -0.923209 -0.268833 -0.274615
0.440116 -0.218875 0.411535 -0.579676 -0.350926 -0.735409
0.408693 -0.217554 0.401483 0.975243 -0.106089 -0.194026
-0.409693 -0.217273 0.411176 0.679989 0.166802 0.713997
-0.444395 -0.217312 0.401611 0.962566 -0.0849701 -0.257385
0.446286 -0.233611 0.412705 -0.702864 -0.2795 -0.654112
0.407436 -0.236261 0.40305 0.929993 -0.17963 -0.320697
-0.405667 -0.232818 0.411539 0.736837 0.178015 0.652213
-0.445689 -0.236184 0.40305 0.933323 -0.185778 -0.307237
0.449659 -0.262098 0.416582 -0.7828 -0.14432 -0.605306
-0.403308 -0.260877 0.411522 0.897545 -0.0287822 0.439982
0.451482 -0.280439 0.416706 -0.858298 -0.0601029 -0.50962
-0.40846 -0.280188 0.416861 0.848492 -0.161786 0.503871
0.452066 -0.296908 0.416562 -0.897565 0.0429707 -0.438782
0.409794 -0.295133 0.417509 0.852051 0.185878 -0.489345
-0.415946 -0.297274 0.421772 0.636616 -0.175432 0.750962
0.451912 -0.31316 0.416285 -0.869913 0.0676568 -0.488543
0.413782 -0.310622 0.417111 0.848198 0.33422 -0.410923
0.409235 -0.30564 0.40562 0.951041 0.308695 -0.0151519
-0.416301 -0.312972 0.417925 0.688708 -0.230834 0.687311
0.451665 -0.329565 0.416293 -0.841456 0.194907 -0.503947
-0.417262 -0.329527 0.416877 0.758648 -0.345749 0.552187
0.451209 -0.345688 0.416579 -0.832587 0.369927 -0.412255
-0.418079 -0.345536 0.416697 0.831026 -0.34455 0.43667
0.450451 -0.361569 0.416676 -0.873515 0.220767 -0.433859
-0.418894 -0.36148 0.416646 0.877039 -0.202021 0.435879
0.449821 -0.377642 0.416668 -0.890723 0.164874 -0.423591
-0.419479 -0.377642 0.416668 0.893283 -0.152399 0.422872
0.449608 -0.393804 0.416689 -0.933985 0.117309 -0.337506
-0.419693 -0.393804 0.416689 0.933845 0.11963 0.337078
0.449811 -0.41003 0.416731 -0.898636 0.0810984 -0.431135
-0.419693 -0.409902 0.416764 0.927666 0.145137 0.34405
0.450405 -0.426588 0.417009 -0.877157 -0.0240495 -0.479601
-0.419491 -0.426128 0.417029 0.914175 0.22605 0.33643
0.45267 -0.442597 0.417322 0.881582 0.367927 0.295707
-0.418532 -0.44252 0.417572 0.902122 0.329592 0.278469
0.455406 -0.457622 0.417457 0.922672 0.315904 0.221092
-0.416195 -0.458061 0.417848 0.938738 0.343949 0.0216641
-0.451372 -0.463475 0.415916 0.921713 -0.382186 0.0661794
0.45678 -0.473545 0.41785 0.964259 0.223563 0.142215
0.419983 -0.478618 0.415986 -0.990041 0.112643 -0.0844471
-0.414938 -0.473576 0.417982 0.988928 0.101413 0.108338
-0.454917 -0.478598 0.421375 0.937754 -0.336385 -0.0863921
0.458564 -0.492502 0.417558 0.992569 0.121066 -0.0122244
0.419523 -0.490674 0.419917 -0.997538 0.00684694 0.0697919
-0.415781 -0.490269 0.417737 0.994737 -0.0720552 -0.0728399
0.420285 -0.502414 0.424369 -0.994025 -0.0958726 0.0521712
-0.418362 -0.50613 0.415749 0.957105 -0.226183 -0.181085
-0.463408 -0.50669 0.419205 0.997291 -0.0501767 0.0537906
0.465098 -0.523841 0.421947 0.908829 0.047817 -0.414419
0.424965 -0.518704 0.423793 -0.961347 -0.230507 -0.150591
-0.422335 -0.521122 0.425604 0.938737 -0.328045 0.105641
-0.460805 -0.519601 0.418159 0.947333 0.133526 0.291086
0.466111 -0.539352 0.422096 0.974582 -0.0726602 -0.21192
0.430902 -0.53777 0.417814 -0.799658 -0.284929 -0.528547
-0.427721 -0.53724 0.423237 0.8052 -0.575777 -0.141893
-0.460363 -0.537841 0.421558 0.910386 0.219882 0.3505
0.465949 -0.554901 0.42205 0.96417 -0.223565 -0.142808
0.432844 -0.549814 0.423155 -0.872623 -0.373078 -0.315185
-0.432316 -0.553789 0.422396 0.846069 -0.428161 -0.317563
-0.460195 -0.554658 0.422565 0.873453 0.369338 0.317283
0.465919 -0.570947 0.422151 0.943006 -0.133648 -0.304758
0.438577 -0.567423 0.420661 -0.904434 -0.295864 -0.307349
-0.434781 -0.57036 0.422417 0.935456 -0.0322927 -0.351964
-0.46028 -0.571012 0.422779 0.942527 0.0814873 0.324041
0.466506 -0.587084 0.422365 0.887167 0.175206 -0.426893
0.440432 -0.58628 0.422764 -0.91078 -0.0031861 -0.41288
-0.434788 -0.586956 0.422622 0.923175 0.051748 -0.380881
-0.46097 -0.58748 0.423298 0.868008 -0.192983 0.457515
0.466912 -0.603489 0.422872 0.827667 0.253512 -0.500698
0.43999 -0.602838 0.42412 -0.876423 0.288222 -0.38576
-0.434714 -0.603413 0.422934 0.874601 0.131316 -0.466722
-0.462414 -0.603451 0.423641 0.827241 -0.0939888 0.55393
0.466889 -0.622114 0.423705 0.652235 -0.0234051 -0.757656
0.439565 -0.618918 0.425836 -0.918791 0.127502 -0.373585
-0.435902 -0.6212 0.423333 0.6426 -0.152651 -0.750841
-0.462792 -0.618676 0.424805 0.855871 0.035083 0.515998
0.471324 -0.639446 0.428051 0.712048 -0.0356031 -0.701228
0.463323 -0.635647 0.421224 0.47754 -0.0755125 -0.875359
0.449355 -0.632155 0.420677 -0.281798 -0.117447 -0.952258
0.43962 -0.634347 0.429263 -0.93703 -0.0813896 -0.339633
-0.435245 -0.636966 0.427131 0.741261 -0.298339 -0.601271
-0.441138 -0.631296 0.421032 0.402561 -0.157278 -0.901781
-0.452991 -0.63108 0.420688 -0.306681 -0.127857 -0.943186
-0.463124 -0.634596 0.42724 0.858466 -0.0283396 0.512086
0.470512 -0.651375 0.426788 0.712944 0.00162742 -0.701219
0.460533 -0.650238 0.42248 0.231829 -0.103867 -0.967195
0.448657 -0.650467 0.42576 -0.51395 -0.154223 -0.843843
-0.442833 -0.647043 0.426644 0.415939 -0.265851 -0.869665
-0.455426 -0.64923 0.424538 -0.30707 -0.152737 -0.93935
-0.464912 -0.6512 0.429182 -0.548777 0.0290374 -0.835464
0.469249 -0.663303 0.425976 0.698569 0.0418006 -0.71432
0.460742 -0.6666 0.424721 0.141601 -0.160402 -0.976842
0.449219 -0.669097 0.430239 -0.650233 -0.243025 -0.719817
-0.449093 -0.664971 0.429174 0.373881 -0.265657 -0.888617
-0.458882 -0.663072 0.426257 -0.0492661 -0.181976 -0.982068
-0.466622 -0.667604 0.429869 -0.554672 -0.0449246 -0.830856
0.47365 -0.680746 0.430475 0.657353 0.0316025 -0.75292
0.46202 -0.683716 0.42673 -0.189793 -0.221293 -0.95656
0.4535 -0.68599 0.430047 -0.535938 -0.300006 -0.789156
-0.456041 -0.680417 0.430046 0.116728 -0.13618 -0.983783
-0.468152 -0.683724 0.430615 -0.389025 -0.0905962 -0.916762
0.47358 -0.699439 0.43088 0.331358 -0.196696 -0.922774
0.461796 -0.698804 0.42917 -0.163657 -0.277862 -0.946578
-0.459061 -0.69935 0.431741 0.145545 -0.109557 -0.983267
-0.470271 -0.698966 0.432258 -0.343257 -0.0627885 -0.93714
0.470686 -0.7143 0.432483 0.0563528 -0.244172 -0.968093
0.460163 -0.710669 0.433613 -0.237965 -0.209169 -0.948484
-0.462927 -0.71435 0.433289 0.043139 -0.182716 -0.982219
-0.472648 -0.711485 0.434996 -0.458308 -0.0485829 -0.887464
0.368754 0.0959405 0.382489 -0.201132 -0.706098 -0.678948
0.353584 0.0984091 0.383661 -0.141258 -0.702117 -0.69791
0.33548 0.102604 0.382075 -0.0829256 -0.736239 -0.671621
0.3171 0.102271 0.383935 -0.0352211 -0.711535 -0.701768
0.300614 0.102259 0.38443 -0.0130474 -0.707588 -0.706505
0.284452 0.102259 0.384493 -0.00303661 -0.707012 -0.707195
0.268354 0.102259 0.384493 -0.000230849 -0.707109 -0.707105
0.252256 0.102259 0.384493 1.80032e-008 -0.707117 -0.707097
0.236157 0.102259 0.384493 1.79291e-008 -0.707117 -0.707097
0.220059 0.102259 0.384493 1.80621e-008 -0.707117 -0.707097
0.203961 0.102259 0.384493 1.80579e-008 -0.707117 -0.707097
0.187863 0.102259 0.384493 1.79575e-008 -0.707117 -0.707097
0.171765 0.102259 0.384493 1.76438e-008 -0.707117 -0.707097
0.155667 0.102259 0.384493 1.78879e-008 -0.707117 -0.707097
0.139568 0.102259 0.384493 1.79203e-008 -0.707117 -0.707097
0.12347 0.102259 0.384493 1.79962e-008 -0.707117 -0.707097
0.107372 0.102259 0.384493 1.78696e-008 -0.707117 -0.707097
0.0912738 0.102259 0.384493 1.78675e-008 -0.707117 -0.707097
0.0751756 0.102259 0.384493 1.78707e-008 -0.707117 -0.707097
0.0590775 0.102259 0.384493 1.79614e-008 -0.707117 -0.707097
0.0429793 0.102259 0.384493 1.79992e-008 -0.707117 -0.707097
0.0268811 0.102259 0.384493 1.80067e-008 -0.707117 -0.707097
0.0107829 0.102259 0.384493 1.79751e-008 -0.707117 -0.707097
-0.00531523 0.102259 0.384493 1.79796e-008 -0.707117 -0.707097
-0.0214134 0.102259 0.384493 1.85383e-008 -0.707117 -0.707097
-0.0375116 0.102259 0.384493 1.48658e-008 -0.707117 -0.707097
-0.0536086 0.102259 0.384493 -1.23486e-008 -0.707117 -0.707097
-0.0697068 0.102259 0.384493 -1.61359e-008 -0.707117 -0.707097
-0.085805 0.102259 0.384493 -1.55028e-008 -0.707117 -0.707097
-0.101903 0.102259 0.384493 -1.54343e-008 -0.707117 -0.707097
-0.118001 0.102259 0.384493 -1.55375e-008 -0.707117 -0.707097
-0.134099 0.102259 0.384493 -1.56525e-008 -0.707117 -0.707097
-0.150198 0.102259 0.384493 -1.57403e-008 -0.707117 -0.707097
-0.166296 0.102259 0.384493 -1.53684e-008 -0.707117 -0.707097
-0.182394 0.102259 0.384493 -1.54002e-008 -0.707117 -0.707097
-0.198492 0.102259 0.384493 -1.5464e-008 -0.707117 -0.707097
-0.21459 0.102259 0.384493 -1.51594e-008 -0.707117 -0.707097
-0.230689 0.102259 0.384493 -1.52147e-008 -0.707117 -0.707097
-0.246787 0.102259 0.384493 -1.53395e-008 -0.707117 -0.707097
-0.262885 0.102259 0.384493 -1.51809e-008 -0.707117 -0.707097
-0.278983 0.102259 0.384493 0.00132872 -0.707258 -0.706954
-0.295081 0.102259 0.384493 0.00660638 -0.70819 -0.705991
-0.31135 0.102099 0.384365 0.0187776 -0.710785 -0.703159
-0.328103 0.101765 0.384114 0.0364155 -0.716139 -0.697007
-0.344935 0.0998354 0.384865 0.077393 -0.708883 -0.701068
-0.358878 0.0962601 0.387281 0.127746 -0.680696 -0.721342
-0.374584 0.0963719 0.382358 0.243511 -0.732806 -0.635372
0.415277 0.0761348 0.380761 -0.566977 -0.593476 -0.571247
0.399486 0.0844769 0.382048 -0.37811 -0.663036 -0.646077
0.379874 0.0855351 0.388851 -0.230082 -0.607763 -0.760057
-0.391966 0.088207 0.383786 0.387246 -0.673046 -0.630119
-0.407024 0.0785007 0.384099 0.540139 -0.600459 -0.589661
0.423959 0.0638909 0.385043 -0.657129 -0.482377 -0.579218
-0.419402 0.0683178 0.383022 0.713063 -0.486774 -0.50457
0.429796 0.0512518 0.388976 -0.718473 -0.362307 -0.593743
-0.428225 0.0550406 0.378347 0.878435 -0.33483 -0.340941
0.425605 0.0390881 0.396193 -0.558523 -0.263193 -0.786627
-0.430013 0.0402457 0.383354 0.881318 -0.199831 -0.428189
0.431553 0.0247144 0.395967 -0.68858 -0.173939 -0.703991
0.356426 0.0284253 0.398301 0.138731 0.451257 -0.881544
0.339608 0.0276799 0.39564 0.0818598 0.551848 -0.829917
0.322781 0.0276856 0.394832 0.0317726 0.604967 -0.795617
0.306513 0.0277285 0.39463 0.00615475 0.617617 -0.786455
0.290415 0.0277285 0.39463 -0.00111419 0.619115 -0.785299
0.274316 0.0277285 0.39463 -0.00238884 0.619382 -0.785086
0.258218 0.0277285 0.39463 -0.00238884 0.619382 -0.785086
0.24212 0.0277285 0.39463 -0.00238884 0.619382 -0.785086
0.226022 0.0277285 0.39463 -0.00238883 0.619382 -0.785086
0.209924 0.0277285 0.39463 -0.00238883 0.619382 -0.785086
0.193826 0.0277285 0.39463 -0.00238883 0.619382 -0.785086
0.177727 0.0277285 0.39463 -0.00238883 0.619382 -0.785086
0.161629 0.0277285 0.39463 -0.00238883 0.619382 -0.785086
0.145531 0.0277285 0.39463 -0.00238883 0.619382 -0.785086
0.129433 0.0277285 0.39463 -0.00238883 0.619382 -0.785086
0.113335 0.0277285 0.39463 -0.00238883 0.619382 -0.785086
0.0972365 0.0277285 0.39463 -0.00238883 0.619382 -0.785086
0.0811383 0.0277285 0.39463 -0.00238883 0.619382 -0.785086
0.0650402 0.0277285 0.39463 -0.00238883 0.619382 -0.785086
0.048942 0.0277285 0.39463 -0.00238883 0.619382 -0.785086
0.0328438 0.0277285 0.39463 -0.00238883 0.619382 -0.785086
0.0167456 0.0277285 0.39463 -0.00238883 0.619382 -0.785086
0.000647475 0.0277285 0.39463 -0.00238883 0.619382 -0.785086
-0.0154507 0.0277285 0.39463 -0.00238883 0.619382 -0.785086
-0.0315489 0.0277285 0.39463 -0.0023889 0.619382 -0.785086
-0.047647 0.0277285 0.39463 -0.00238896 0.619382 -0.785086
-0.0637452 0.0277285 0.39463 -0.00238901 0.619382 -0.785086
-0.0798434 0.0277285 0.39463 -0.00238901 0.619382 -0.785086
-0.0959416 0.0277285 0.39463 -0.00238901 0.619382 -0.785086
-0.11204 0.0277285 0.39463 -0.00238901 0.619382 -0.785086
-0.128138 0.0277285 0.39463 -0.00238901 0.619382 -0.785086
-0.144236 0.0277285 0.39463 -0.00238901 0.619382 -0.785086
-0.160334 0.0277285 0.39463 -0.00238901 0.619382 -0.785086
-0.176432 0.0277285 0.39463 -0.00238901 0.619382 -0.785086
-0.192531 0.0277285 0.39463 -0.00238901 0.619382 -0.785086
-0.208629 0.0277285 0.39463 -0.00238901 0.619382 -0.785086
-0.224727 0.0277285 0.39463 -0.00238901 0.619382 -0.785086
-0.240825 0.0277285 0.39463 -0.00238901 0.619382 -0.785086
-0.256923 0.0277285 0.39463 -0.00238913 0.619382 -0.785086
-0.273021 0.0277285 0.39463 -0.00238923 0.619382 -0.785086
-0.28912 0.0277285 0.39463 -0.00262678 0.619281 -0.785165
-0.305218 0.0277285 0.39463 -0.00979877 0.618127 -0.786018
-0.321401 0.0276653 0.394651 -0.0428937 0.612115 -0.789604
-0.338223 0.026685 0.394842 -0.116095 0.588486 -0.800129
-0.358092 0.0229843 0.396034 -0.227259 0.541802 -0.809199
-0.431385 0.022065 0.386868 0.905744 -0.113789 -0.408264
0.384699 0.0115332 0.397078 0.387096 0.378537 -0.840753
0.367149 0.0195919 0.39595 0.256174 0.53942 -0.802123
-0.376998 0.00874383 0.396449 -0.492313 0.443393 -0.74902
0.434009 -0.00452771 0.39982 -0.667198 -0.0784192 -0.740741
-0.395186 -0.00756327 0.401718 -0.453352 0.16789 -0.875377
0.435593 -0.022959 0.400012 -0.778658 0.0274122 -0.62685
-0.40084 -0.0271182 0.404338 -0.554281 0.195518 -0.80904
0.435927 -0.0395812 0.399995 -0.811748 0.0890012 -0.577186
-0.400212 -0.0402328 0.402001 -0.810827 0.126797 -0.571386
0.435853 -0.055807 0.399995 -0.804167 0.123165 -0.581504
-0.400707 -0.0558318 0.400447 -0.763335 0.180574 -0.620252
0.435631 -0.0720576 0.400173 -0.777118 0.231279 -0.585318
-0.401399 -0.0720576 0.400173 -0.769592 0.253941 -0.585868
0.435111 -0.0881174 0.400481 -0.825505 0.328075 -0.459248
-0.401993 -0.0881174 0.400481 -0.823972 0.331513 -0.459531
0.434353 -0.103999 0.400578 -0.871884 0.223445 -0.435765
-0.402751 -0.103999 0.400652 -0.871231 0.222178 -0.437714
0.433723 -0.120071 0.40057 -0.890905 0.164265 -0.423444
-0.403381 -0.120071 0.400868 0.942946 0.117587 0.311489
