ply
format ascii 1.0
element vertex 851
property float x
property float y
property float z
property float nx
property float ny
property float nz
end_header
0.453767 0.396084 -0.236418 0.811167 0.576227 -0.0998507
0.377201 0.415264 -0.264508 -0.387447 0.532588 0.752486
0.386679 0.397817 -0.241568 -0.659657 0.507368 0.554464
0.375786 0.40021 -0.255395 -0.594171 0.435627 0.676158
0.461221 0.379668 -0.235844 0.942036 0.303456 -0.14312
0.359541 0.38473 -0.265353 -0.718071 0.171076 0.674616
0.463018 0.365705 -0.239163 0.977468 0.143615 -0.154694
0.359373 0.367709 -0.261502 -0.764738 0.0969186 0.637011
0.463796 0.349176 -0.240281 0.989235 -0.000409827 -0.146332
0.359683 0.350066 -0.259825 -0.781916 0.0066211 0.623348
0.462815 0.332506 -0.241965 0.979087 -0.139968 -0.14764
0.360922 0.331964 -0.259134 -0.769085 -0.0827794 0.633764
0.459877 0.316473 -0.244326 0.932783 -0.32788 -0.149702
0.380079 0.314956 -0.241273 -0.743218 -0.296672 0.599677
0.454147 0.30433 -0.248505 0.854593 -0.500427 -0.138723
0.387304 0.298398 -0.241163 -0.638868 -0.522114 0.565018
0.371447 0.296836 -0.257873 -0.580854 -0.3544 0.732809
0.444079 0.292033 -0.247159 0.658579 -0.747983 -0.0824325
0.430103 0.283659 -0.241993 0.287131 -0.953471 0.0919181
0.41526 0.281784 -0.240875 -0.0452097 -0.958602 0.281138
0.399938 0.286559 -0.2412 -0.387966 -0.780679 0.489922
0.354928 0.0548231 -0.245154 0.409153 0.782269 0.469734
0.360558 0.0698156 -0.265136 0.377835 0.581334 0.720618
0.333422 0.0564733 -0.240758 0.0627725 0.936954 0.343769
0.341419 0.0659178 -0.257935 0.0286257 0.801618 0.597151
0.317894 0.0547975 -0.236878 -0.0369656 0.971486 0.234198
0.304166 0.0545676 -0.23997 -0.0832801 0.980189 0.179706
0.287248 0.0534169 -0.240569 -0.0739366 0.991931 0.102986
0.270718 0.0525813 -0.240805 -0.0499793 0.997086 0.0576312
0.254044 0.0522359 -0.241473 -0.0263532 0.999499 0.0175554
0.236637 0.052097 -0.241737 -0.00907456 0.999941 0.00597115
0.219107 0.052097 -0.241737 -0.00237622 0.999997 0.000251219
0.201575 0.052097 -0.241737 -0 1 -0
0.184043 0.052097 -0.241737 -1.03244e-017 1 -3.23083e-017
0.166511 0.052097 -0.241737 4.44956e-017 1 -2.58757e-022
0.148979 0.052097 -0.241737 5.99398e-017 1 -2.63057e-022
0.131447 0.052097 -0.241737 2.89109e-017 1 -3.14268e-017
0.113915 0.052097 -0.241737 -1.14479e-021 1 1.67776e-017
0.0963836 0.052097 -0.241737 -4.68998e-021 1 1.77579e-017
0.0788518 0.052097 -0.241737 -1.30159e-018 1 1.96373e-017
0.0613199 0.052097 -0.241737 4.16167e-017 1 3.68261e-018
0.0437881 0.052097 -0.241737 -2.63619e-018 1 -7.30283e-017
0.0262562 0.052097 -0.241737 -0 1 -0
0.00872437 0.052097 -0.241737 -1.95526e-017 1 1.34124e-017
-0.00880748 0.052097 -0.241737 -2.12498e-018 1 -1.65307e-017
-0.0263382 0.052097 -0.241737 -0 1 -0
-0.04387 0.052097 -0.241737 -0 1 -0
-0.0614019 0.052097 -0.241737 0 1 0
-0.0789337 0.052097 -0.241737 -0 1 -0
-0.0964656 0.052097 -0.241737 -8.99688e-018 1 -3.14268e-017
-0.113997 0.052097 -0.241737 -3.14282e-017 1 3.68264e-018
-0.131529 0.052097 -0.241737 1.05254e-018 1 1.36694e-022
-0.149061 0.052097 -0.241737 -0 1 -0
-0.166593 0.052097 -0.241737 -5.06364e-018 1 5.78662e-022
-0.184125 0.052097 -0.241737 2.63547e-018 1 7.62393e-018
-0.201657 0.052097 -0.241737 -2.56564e-017 1 -5.62337e-022
-0.219189 0.052097 -0.241737 -9.37995e-021 1 3.64831e-017
-0.23672 0.052097 -0.241737 -6.85321e-018 1 2.76251e-017
-0.254252 0.052097 -0.241737 0 1 0
-0.271783 0.052097 -0.241737 9.37863e-021 1 8.66835e-017
-0.289315 0.052097 -0.241737 1.24347e-017 1 -3.14267e-017
-0.306847 0.052097 -0.241737 0 1 0
-0.324378 0.052097 -0.241737 -0.00484699 0.999988 1.62755e-010
-0.34191 0.052097 -0.241737 -0.0409294 0.999162 -6.27038e-005
-0.359442 0.0514482 -0.241737 -0.137125 0.990537 -0.00579187
-0.376325 0.0488504 -0.242386 -0.367854 0.92984 -0.00896143
0.371536 0.0411272 -0.243453 0.812793 0.442364 0.379054
0.373626 0.0541043 -0.261256 0.709064 0.468568 0.526945
-0.39061 0.0423561 -0.244335 -0.735949 0.67701 0.00603155
0.377668 0.0234915 -0.245971 0.949685 -0.228782 0.213908
0.382145 0.0371151 -0.261727 0.936251 0.0274193 0.35026
-0.399051 0.0319663 -0.24823 -0.959733 0.280907 -0.0017161
-0.399051 0.0196287 -0.235244 -0.959724 -0.280939 0.0017144
0.371026 0.00988895 -0.242595 0.786111 -0.613654 0.0738745
0.358108 0.00281459 -0.241807 0.487231 -0.873022 0.0209126
0.341828 0.000147986 -0.241737 0.157 -0.987589 0.0042892
0.324297 -0.000502031 -0.241737 0.0421221 -0.999109 0.00248951
0.306765 -0.000502031 -0.241737 0.00623819 -0.999981 0.00032362
0.289233 -0.000502031 -0.241737 -1.19951e-019 -1 -5.45692e-019
0.271701 -0.000502031 -0.241737 1.70075e-019 -1 3.54573e-019
0.254169 -0.000502031 -0.241737 0 -1 0
0.236637 -0.000502031 -0.241737 4.93366e-019 -1 -1.2159e-018
0.219107 -0.000502031 -0.241737 -7.20571e-020 -1 -4.89148e-019
0.201575 -0.000502031 -0.241737 -3.03629e-019 -1 3.54585e-019
0.184043 -0.000502031 -0.241737 -2.05323e-019 -1 1.03167e-018
0.166511 -0.000502031 -0.241737 4.64437e-019 -1 3.54577e-019
0.148979 -0.000502031 -0.241737 -8.7703e-020 -1 3.54575e-019
0.131447 -0.000502031 -0.241737 3.94195e-019 -1 -3.18438e-019
0.113915 -0.000502031 -0.241737 -3.57747e-023 -1 5.243e-019
0.0963836 -0.000502031 -0.241737 2.03374e-020 -1 3.06832e-019
0.0788518 -0.000502031 -0.241737 3.66405e-023 -1 1.38734e-019
0.0613199 -0.000502031 -0.241737 4.06423e-019 -1 -2.9646e-019
0.0437881 -0.000502031 -0.241737 3.66405e-023 -1 -1.21967e-019
0.0262562 -0.000502031 -0.241737 -6.53636e-019 -1 8.54305e-019
0.00872437 -0.000502031 -0.241737 -3.32016e-020 -1 -2.58569e-019
-0.00880748 -0.000502031 -0.241737 2.77957e-019 -1 -4.92329e-019
-0.0263382 -0.000502031 -0.241737 2.03409e-020 -1 -6.12042e-019
-0.04387 -0.000502031 -0.241737 -1.2127e-018 -1 -3.18437e-019
-0.0614019 -0.000502031 -0.241737 1.73506e-019 -1 -1.44309e-020
-0.0789337 -0.000502031 -0.241737 1.78874e-023 -1 -2.49398e-019
-0.0964656 -0.000502031 -0.241737 5.57176e-019 -1 -3.18435e-019
-0.113997 -0.000502031 -0.241737 -4.06421e-019 -1 8.68691e-019
-0.131529 -0.000502031 -0.241737 8.46971e-019 -1 3.54577e-019
-0.149061 -0.000502031 -0.241737 -6.45274e-019 -1 -3.18439e-019
-0.166593 -0.000502031 -0.241737 2.42237e-019 -1 3.54592e-019
-0.184125 -0.000502031 -0.241737 -9.68911e-024 -1 -7.67582e-019
-0.201657 -0.000502031 -0.241737 -7.2223e-019 -1 3.54575e-019
-0.219189 -0.000502031 -0.241737 -1.40298e-019 -1 1.00595e-018
-0.23672 -0.000502031 -0.241737 -1.40295e-019 -1 -1.01002e-018
-0.254252 -0.000502031 -0.241737 1.62377e-019 -1 -1.19659e-019
-0.271783 -0.000502031 -0.241737 0.000243702 -1 0.000371167
-0.289315 -0.000502031 -0.241737 0.000417597 -0.999999 0.00111966
-0.306847 -0.000502031 -0.241737 0.00100841 -0.999994 0.00331869
-0.324378 -0.000502031 -0.241737 -0.00487624 -0.999968 0.00638455
-0.34191 -0.000502031 -0.241737 -0.0403087 -0.999156 0.00789104
-0.359442 0.000147986 -0.241737 -0.141035 -0.989958 0.00962119
-0.376325 0.00274573 -0.241088 -0.367887 -0.929821 0.00955229
-0.39061 0.00923892 -0.239139 -0.73593 -0.677031 -0.0060347
0.438481 0.849115 -0.257669 0.468102 0.868581 -0.162624
0.424286 0.855135 -0.254528 0.280001 0.9551 -0.096871
0.411028 0.856782 -0.257836 0.155242 0.985605 -0.0669601
0.394067 0.857678 -0.259074 0.00998845 0.999829 -0.015533
0.37718 0.856949 -0.260651 -0.131962 0.990741 0.0319003
0.3643 0.855667 -0.2643 -0.256249 0.964966 0.0563638
0.453451 0.838396 -0.257975 0.655984 0.723379 -0.215425
0.336181 0.841203 -0.260186 -0.650289 0.74698 0.138364
0.475805 0.802649 -0.255356 0.897104 0.357865 -0.259107
0.466046 0.822801 -0.257426 0.805156 0.539832 -0.24557
0.323573 0.824601 -0.257876 -0.825541 0.532638 0.186489
0.317098 0.820519 -0.280716 -0.836584 0.518028 0.178255
0.481388 0.785435 -0.255598 0.93161 0.253678 -0.260288
0.307828 0.785299 -0.264795 -0.939506 0.232034 0.251971
0.48258 0.774039 -0.260329 0.942986 0.200645 -0.265553
0.306787 0.770967 -0.259668 -0.949943 0.171747 0.260981
0.486874 0.756334 -0.255083 0.956956 0.130041 -0.25947
0.305823 0.756412 -0.255559 -0.956147 0.130732 0.262093
0.487931 0.736117 -0.258253 0.964305 0.0583362 -0.258287
0.30186 0.738279 -0.262282 -0.960311 0.0741685 0.268891
0.295184 0.735509 -0.283334 -0.953269 0.0648575 0.295079
0.488171 0.718108 -0.259074 0.967451 -0.00332451 -0.253036
0.301325 0.718498 -0.26035 -0.965026 -0.00456633 0.262114
0.296131 0.718594 -0.278457 -0.957308 -0.0053966 0.289019
0.487603 0.700674 -0.259172 0.965416 -0.0618651 -0.253269
0.302485 0.700743 -0.259436 -0.961904 -0.079124 0.261688
0.485737 0.683239 -0.259269 0.961394 -0.119653 -0.247798
0.304896 0.683239 -0.259269 -0.953556 -0.148403 0.262122
0.482977 0.665707 -0.259269 0.951091 -0.181513 -0.249958
0.307818 0.665707 -0.259269 -0.942021 -0.198388 0.270627
0.479585 0.64837 -0.259626 0.931993 -0.25967 -0.252905
0.312439 0.6483 -0.259004 -0.93119 -0.241804 0.272793
0.474257 0.631938 -0.260795 0.891933 -0.374663 -0.253146
0.316961 0.631284 -0.258351 -0.915522 -0.290078 0.278701
0.311721 0.630982 -0.275608 -0.923976 -0.269695 0.271171
0.466496 0.616145 -0.262358 0.822637 -0.516206 -0.238325
0.322978 0.613436 -0.258314 -0.877636 -0.36814 0.306966
0.45612 0.603784 -0.26483 0.726406 -0.653086 -0.214039
0.446087 0.592905 -0.259798 0.621493 -0.769135 -0.148921
0.332255 0.594148 -0.259055 -0.788157 -0.475181 0.391166
0.431268 0.583737 -0.257104 0.489849 -0.870734 -0.0432477
0.417688 0.577931 -0.253394 0.367391 -0.92743 0.0699821
0.400005 0.572246 -0.254593 0.270591 -0.922747 0.274443
0.344656 0.576362 -0.259968 -0.611499 -0.571296 0.54744
0.331266 0.574459 -0.278079 -0.802891 -0.374724 0.463624
0.37838 0.564918 -0.259144 0.0331641 -0.812617 0.581854
0.358599 0.560936 -0.264396 -0.280379 -0.626076 0.72761
0.342393 0.55924 -0.273729 -0.619417 -0.426816 0.658902
0.371585 0.545883 -0.273631 0.243471 -0.545096 0.802242
0.351709 0.543366 -0.275965 -0.325477 -0.400786 0.856408
0.337763 0.542122 -0.284874 -0.716771 -0.26243 0.646041
0.357352 0.525977 -0.279689 -0.107668 -0.260936 0.959333
0.34237 0.525494 -0.285564 -0.60636 -0.193306 0.771336
0.359073 0.508102 -0.282015 -0.031489 -0.113525 0.993036
0.344518 0.50799 -0.286563 -0.530398 -0.104419 0.841293
0.359384 0.490459 -0.283061 -0.0251404 -0.0339373 0.999108
0.345075 0.49039 -0.287108 -0.513245 -0.037539 0.857421
0.359499 0.472719 -0.283246 -0.038414 0.0382263 0.99853
0.345075 0.472858 -0.28719 -0.493282 -0.00329962 0.869863
0.360162 0.454409 -0.282506 -0.159339 0.154288 0.975093
0.345144 0.455256 -0.287166 -0.538615 0.0381252 0.841689
0.436026 0.411414 -0.257048 0.542855 0.838794 -0.0416213
0.42429 0.416849 -0.255754 0.306276 0.943865 0.123749
0.412083 0.419019 -0.26102 0.180688 0.938451 0.294384
0.395206 0.423954 -0.267272 0.035315 0.808894 0.586893
0.395428 0.436102 -0.282423 0.426277 0.689986 0.584985
0.377561 0.430761 -0.274216 -0.100632 0.520899 0.847666
0.360486 0.435903 -0.27999 -0.329257 0.235061 0.914514
0.345214 0.437493 -0.286656 -0.609824 0.0907816 0.787321
0.360209 0.418318 -0.275171 -0.470105 0.28507 0.835306
0.345144 0.419787 -0.285299 -0.688865 0.115615 0.71561
0.457485 0.380756 -0.25345 0.930719 0.317025 -0.182367
0.448232 0.399652 -0.256753 0.766295 0.625419 -0.147114
0.359936 0.401456 -0.269804 -0.629316 0.276477 0.726307
0.345074 0.402406 -0.283455 -0.752856 0.119801 0.647191
0.345074 0.385118 -0.280859 -0.782419 0.0888758 0.616377
0.461726 0.362875 -0.252779 0.975489 0.121447 -0.183497
0.345074 0.367667 -0.278585 -0.809192 0.0525771 0.585188
0.461546 0.349411 -0.256936 0.980004 -0.000276694 -0.198979
0.345144 0.350066 -0.277368 -0.821479 0.0115585 0.570122
0.460162 0.332771 -0.259135 0.966635 -0.143903 -0.211918
0.345663 0.331964 -0.276828 -0.816086 -0.0215807 0.577528
0.455995 0.316365 -0.260795 0.91995 -0.327882 -0.214908
0.364825 0.314195 -0.258309 -0.718801 -0.1903 0.668663
0.346824 0.31141 -0.277181 -0.75989 -0.0801582 0.64509
0.448888 0.30133 -0.262154 0.808358 -0.557941 -0.187772
0.354157 0.295565 -0.272083 -0.680486 -0.163782 0.714223
0.341065 0.292631 -0.284837 -0.80493 -0.0839747 0.587398
0.439437 0.290423 -0.263862 0.685053 -0.721311 -0.102041
0.429746 0.282955 -0.258736 0.447262 -0.894028 0.0258972
0.418282 0.27954 -0.254606 0.200779 -0.943114 0.264998
0.403328 0.276912 -0.2581 0.00483982 -0.870376 0.492364
0.383654 0.279691 -0.26042 -0.287611 -0.603914 0.743349
0.360282 0.276249 -0.272646 -0.431341 -0.259725 0.863995
0.343482 0.278339 -0.284193 -0.685438 -0.0916226 0.722343
0.3704 0.260957 -0.273977 -0.143189 -0.362405 0.920956
0.355261 0.257734 -0.278527 -0.414004 -0.186016 0.891066
0.344187 0.261044 -0.285041 -0.649995 -0.0979317 0.753602
0.373801 0.244104 -0.278745 0.17019 -0.305233 0.936946
0.357945 0.243916 -0.279567 -0.213811 -0.149013 0.965443
0.344091 0.244013 -0.286121 -0.628738 -0.073991 0.774089
0.358997 0.22719 -0.281178 -0.110399 -0.133809 0.984839
0.344718 0.227218 -0.286539 -0.569886 -0.0534998 0.819981
0.359374 0.209923 -0.282374 -0.0412203 -0.0831904 0.995681
0.345075 0.209881 -0.286864 -0.524927 -0.0432127 0.85005
0.359384 0.192419 -0.283061 -0.010019 -0.038138 0.999222
0.345075 0.192349 -0.287108 -0.50863 -0.0223569 0.860695
0.35936 0.174818 -0.283293 -0.00118165 -0.00593602 0.999982
0.345075 0.174818 -0.28719 -0.50688 -0.00222174 0.862014
0.35936 0.157286 -0.283293 0.000633447 0.0102166 0.999948
0.345075 0.157286 -0.28719 -0.500047 0.00826321 0.865959
0.359337 0.139685 -0.283061 0.00932832 0.0473401 0.998835
0.345028 0.139615 -0.286969 -0.488755 0.0605902 0.870315
0.359534 0.121944 -0.281982 0.0595199 0.142829 0.987956
0.344455 0.121513 -0.285726 -0.4712 0.185025 0.862401
0.361181 0.104274 -0.279689 0.17638 0.263897 0.948287
0.344615 0.103369 -0.281162 -0.311403 0.34924 0.883776
0.367079 0.0877897 -0.276915 0.429097 0.35076 0.832372
0.347393 0.0842035 -0.272359 -0.0515116 0.551093 0.832852
0.330137 0.0857183 -0.280108 -0.440519 0.617733 0.651421
0.320619 0.0611891 -0.254368 -0.162968 0.906565 0.389334
0.330161 0.0730832 -0.2683 -0.244304 0.760175 0.602038
0.300592 0.0578643 -0.256937 -0.192658 0.956083 0.220878
0.314112 0.0694141 -0.274167 -0.406112 0.823975 0.395143
0.284678 0.0544602 -0.254443 -0.134454 0.983732 0.119135
0.271352 0.0536468 -0.257933 -0.0988045 0.992796 0.0677737
0.254211 0.0525381 -0.259032 -0.0430799 0.99885 0.0210664
0.236637 0.052097 -0.259269 -0.0149736 0.99988 0.00404049
0.219107 0.052097 -0.259269 -0.00329347 0.999995 -5.24167e-006
0.201575 0.052097 -0.259269 0 1 0
0.184043 0.052097 -0.259269 3.94348e-017 1 1.10322e-022
0.166511 0.052097 -0.259269 4.44956e-017 1 1.12835e-022
0.148979 0.052097 -0.259269 5.99398e-017 1 1.24911e-022
0.131447 0.052097 -0.259269 5.18075e-017 1 -5.66434e-018
0.113915 0.052097 -0.259269 4.34432e-017 1 -6.43401e-023
0.0963836 0.052097 -0.259269 -1.05302e-018 1 4.18772e-023
0.0788518 0.052097 -0.259269 -4.44959e-017 1 -1.2607e-022
0.0613199 0.052097 -0.259269 -0 1 -0
0.0437881 0.052097 -0.259269 -1.40001e-017 1 2.61318e-023
0.0262562 0.052097 -0.259269 0 1 0
0.00872437 0.052097 -0.259269 -0 1 -0
-0.00880748 0.052097 -0.259269 -0 1 -0
-0.0263382 0.052097 -0.259269 0 1 0
-0.04387 0.052097 -0.259269 -2.94613e-017 1 2.82809e-023
-0.0614019 0.052097 -0.259269 -0 1 -0
-0.0789337 0.052097 -0.259269 -5.59292e-017 1 -6.29859e-023
-0.0964656 0.052097 -0.259269 -5.74386e-017 1 -4.74373e-018
-0.113997 0.052097 -0.259269 2.60107e-017 1 -1.06112e-018
-0.131529 0.052097 -0.259269 1.05254e-018 1 -3.52597e-023
-0.149061 0.052097 -0.259269 -0 1 -0
-0.166593 0.052097 -0.259269 -5.06364e-018 1 -2.23157e-022
-0.184125 0.052097 -0.259269 -2.56567e-017 1 -2.48081e-022
-0.201657 0.052097 -0.259269 3.94317e-017 1 1.10322e-022
-0.219189 0.052097 -0.259269 -5.99386e-017 1 1.11676e-022
-0.23672 0.052097 -0.259269 -0 1 -0
-0.254252 0.052097 -0.259269 -0 1 -0
-0.271783 0.052097 -0.259269 2.58859e-017 1 -1.42173e-022
-0.289315 0.052097 -0.259269 1.98009e-017 1 -3.14262e-017
-0.306847 0.052097 -0.259269 -7.37157e-017 1 1.67318e-022
-0.324378 0.052097 -0.259269 -0.00484699 0.999988 -8.13773e-011
-0.34191 0.052097 -0.259269 -0.0409294 0.999162 -6.268e-005
-0.359442 0.0514482 -0.259269 -0.136099 0.99069 -0.00333778
-0.376325 0.0488504 -0.259918 -0.367854 0.92984 -0.00896117
0.385336 0.0531998 -0.277826 0.896992 0.187418 0.400351
-0.39061 0.0423561 -0.261867 -0.735949 0.67701 0.00603288
-0.399051 0.0319663 -0.265762 -0.958897 0.283752 -0.00124216
0.382064 0.0210898 -0.268081 0.890583 -0.383552 0.244437
-0.399051 0.0196287 -0.252776 -0.959724 -0.280939 0.00171442
0.372162 0.00988895 -0.261426 0.714087 -0.68802 0.129256
0.358317 0.00288461 -0.25957 0.39355 -0.917855 0.0515741
0.341828 0.000147986 -0.259269 0.144495 -0.988912 0.0342775
0.324297 -0.000502031 -0.259269 0.0382137 -0.998921 0.0264029
0.306765 -0.000502031 -0.259269 0.00141219 -0.999906 0.0136017
0.289233 -0.000502031 -0.259269 -0.00155936 -0.999994 0.00322912
0.271701 -0.000502031 -0.259269 1.32381e-024 -1 7.67545e-019
0.254169 -0.000502031 -0.259269 -1.07074e-019 -1 -4.31769e-019
0.236637 -0.000502031 -0.259269 -1.19916e-019 -1 -2.42943e-019
0.219107 -0.000502031 -0.259269 1.97087e-018 -1 -7.69195e-019
0.201575 -0.000502031 -0.259269 -8.42171e-019 -1 2.0571e-019
0.184043 -0.000502031 -0.259269 -9.23909e-019 -1 2.0571e-019
0.166511 -0.000502031 -0.259269 1.00298e-018 -1 2.05713e-019
0.148979 -0.000502031 -0.259269 -8.44088e-019 -1 2.05715e-019
0.131447 -0.000502031 -0.259269 -4.91036e-019 -1 -3.3963e-019
0.113915 -0.000502031 -0.259269 -1.95254e-018 -1 2.0571e-019
0.0963836 -0.000502031 -0.259269 -2.91287e-019 -1 2.0571e-019
0.0788518 -0.000502031 -0.259269 0 -1 0
0.0613199 -0.000502031 -0.259269 5.45993e-019 -1 2.05712e-019
0.0437881 -0.000502031 -0.259269 -2.88239e-019 -1 2.05711e-019
0.0262562 -0.000502031 -0.259269 -6.53635e-019 -1 -2.82088e-019
0.00872437 -0.000502031 -0.259269 -8.6395e-019 -1 2.05711e-019
-0.00880748 -0.000502031 -0.259269 -3.32463e-020 -1 2.05711e-019
-0.0263382 -0.000502031 -0.259269 -4.25235e-020 -1 -7.69191e-019
-0.04387 -0.000502031 -0.259269 -3.24851e-019 -1 2.05712e-019
-0.0614019 -0.000502031 -0.259269 -4.06423e-019 -1 -2.67702e-019
-0.0789337 -0.000502031 -0.259269 5.66153e-019 -1 2.05712e-019
-0.0964656 -0.000502031 -0.259269 8.97473e-019 -1 -2.38931e-019
-0.113997 -0.000502031 -0.259269 2.47225e-019 -1 -2.96472e-019
-0.131529 -0.000502031 -0.259269 3.08424e-019 -1 2.05713e-019
-0.149061 -0.000502031 -0.259269 1.47608e-018 -1 2.05709e-019
-0.166593 -0.000502031 -0.259269 2.28621e-019 -1 2.05709e-019
-0.184125 -0.000502031 -0.259269 -9.3145e-020 -1 2.05708e-019
-0.201657 -0.000502031 -0.259269 -1.26078e-018 -1 2.05714e-019
-0.219189 -0.000502031 -0.259269 -3.86835e-019 -1 2.05713e-019
-0.23672 -0.000502031 -0.259269 -2.47304e-019 -1 7.81641e-019
-0.254252 -0.000502031 -0.259269 0.000517306 -1 0.000547492
-0.271783 -0.000502031 -0.259269 0.00170325 -0.999993 0.00335389
-0.289315 -0.000502031 -0.259269 0.00319311 -0.999968 0.00730432
-0.306847 -0.000502031 -0.259269 0.00608233 -0.999852 0.0161075
-0.324378 -0.000502031 -0.259269 -0.00565328 -0.999591 0.0280352
-0.34191 -0.000502031 -0.259269 -0.0422338 -0.998603 0.0317696
-0.359442 0.000147986 -0.259269 -0.142726 -0.989438 0.0253231
-0.376325 0.00274573 -0.25862 -0.369662 -0.92899 0.0180729
-0.39061 0.00923892 -0.256671 -0.736263 -0.676681 -0.00451295
0.428603 0.850142 -0.272889 0.405937 0.895156 -0.18415
0.40986 0.855692 -0.275201 0.214002 0.970227 -0.113412
0.393231 0.857617 -0.275966 0.0597219 0.99702 -0.048828
0.377416 0.857593 -0.277274 -0.0819576 0.996632 0.00265113
0.361691 0.855655 -0.277733 -0.258786 0.965439 0.0309323
0.44754 0.838348 -0.274802 0.636038 0.728684 -0.253918
0.345747 0.849706 -0.277191 -0.470155 0.879852 0.0693871
0.459055 0.826562 -0.272254 0.758503 0.590584 -0.27547
0.331021 0.8381 -0.277328 -0.680488 0.723724 0.114715
0.476327 0.785586 -0.272267 0.922201 0.259386 -0.286819
0.46714 0.808345 -0.277186 0.860873 0.411512 -0.29926
0.308569 0.80328 -0.280561 -0.906114 0.356004 0.228513
0.306416 0.791498 -0.275502 -0.930791 0.271989 0.244233
0.481096 0.767639 -0.270613 0.942242 0.182015 -0.281159
0.30173 0.773742 -0.279507 -0.943871 0.19037 0.269937
0.294896 0.771196 -0.30082 -0.937358 0.201576 0.284124
0.482055 0.75261 -0.274269 0.951818 0.127323 -0.278983
0.300765 0.754273 -0.271759 -0.952701 0.126023 0.276549
0.293767 0.751485 -0.293552 -0.946958 0.12491 0.296089
0.483137 0.73454 -0.275734 0.961422 0.0612551 -0.268172
0.483612 0.71737 -0.275818 0.964549 0.000302783 -0.263904
0.482977 0.700576 -0.276444 0.963243 -0.0635251 -0.261013
0.297719 0.70091 -0.277102 -0.956232 -0.0797767 0.281524
0.481434 0.683239 -0.276801 0.955476 -0.124231 -0.267642
0.299458 0.683239 -0.276801 -0.949553 -0.144328 0.278421
0.294264 0.683239 -0.294333 -0.945836 -0.147519 0.289191
0.479 0.665707 -0.276801 0.94047 -0.194614 -0.278642
0.30303 0.665707 -0.276801 -0.940932 -0.195099 0.276739
0.47477 0.648203 -0.276968 0.915268 -0.27663 -0.292849
0.30709 0.648133 -0.276564 -0.932419 -0.236025 0.273656
0.468286 0.631102 -0.277984 0.871994 -0.386412 -0.300519
0.457372 0.613046 -0.281226 0.790561 -0.540735 -0.287435
0.317264 0.616914 -0.27276 -0.907187 -0.309762 0.284708
0.444659 0.595778 -0.277061 0.669259 -0.714899 -0.202515
0.32172 0.597504 -0.279093 -0.885515 -0.338668 0.318069
0.432865 0.585664 -0.271544 0.590006 -0.802325 -0.0903767
0.4154 0.574879 -0.271485 0.538662 -0.839009 0.0768618
0.393483 0.558994 -0.275903 0.48933 -0.753016 0.439911
0.333025 0.555846 -0.285243 -0.785515 -0.33656 0.51932
0.384783 0.541408 -0.283838 0.604491 -0.519193 0.604177
0.330179 0.542122 -0.297178 -0.909916 -0.206999 0.359451
0.373242 0.526172 -0.282069 0.405336 -0.313571 0.858706
0.332639 0.525259 -0.297319 -0.895268 -0.138379 0.423492
0.373817 0.508506 -0.286009 0.485437 -0.12812 0.864833
0.334117 0.507922 -0.297498 -0.882534 -0.0740003 0.46439
0.373762 0.490459 -0.286946 0.462452 0.00428896 0.886634
0.334685 0.49039 -0.297578 -0.869995 -0.0264223 0.492351
0.374679 0.472033 -0.286878 0.450134 0.144347 0.881217
0.334685 0.472858 -0.297578 -0.867563 0.0059861 0.497291
0.379031 0.450913 -0.284743 0.310095 0.389966 0.867046
0.334603 0.455326 -0.297578 -0.869416 0.0238099 0.493506
0.428451 0.414347 -0.271951 0.537978 0.842742 0.0191117
0.41176 0.424272 -0.27792 0.446898 0.851367 0.274694
0.411158 0.430848 -0.29546 0.659952 0.730208 0.176802
0.334361 0.437794 -0.297578 -0.85856 0.0340024 0.511585
0.44141 0.404237 -0.270569 0.732358 0.669502 -0.124169
0.334117 0.420262 -0.297498 -0.877953 0.0498998 0.476139
0.334035 0.402731 -0.297011 -0.895042 0.0519139 0.442951
0.457357 0.367389 -0.268461 0.958251 0.167379 -0.231817
0.449539 0.388155 -0.275786 0.885994 0.408628 -0.219173
0.334035 0.385199 -0.296199 -0.907401 0.0457504 0.417768
0.334035 0.367667 -0.295388 -0.914229 0.0259092 0.404368
0.456923 0.3504 -0.274796 0.967093 0.00927453 -0.254254
0.334035 0.350135 -0.294657 -0.915754 0.00759621 0.401668
0.455081 0.332673 -0.276569 0.94914 -0.157473 -0.272645
0.334175 0.332464 -0.294332 -0.914671 -0.00386003 0.40418
0.450432 0.315364 -0.277961 0.904465 -0.340946 -0.256316
0.334364 0.314432 -0.294458 -0.893464 -0.0254485 0.448414
0.440219 0.29707 -0.28064 0.793026 -0.583456 -0.17518
0.333804 0.296469 -0.29576 -0.894509 -0.0431454 0.444964
0.430603 0.284463 -0.2734 0.642845 -0.76595 -0.00841375
0.415049 0.274963 -0.272493 0.4517 -0.853238 0.260677
0.333628 0.279243 -0.297092 -0.90511 -0.0641051 0.420317
0.391929 0.261416 -0.276173 0.27953 -0.648762 0.707794
0.334347 0.262115 -0.297272 -0.882757 -0.0550616 0.466592
0.385118 0.242252 -0.283918 0.519779 -0.408482 0.750315
0.334559 0.24468 -0.297439 -0.888974 -0.0388464 0.456306
0.373963 0.227419 -0.28284 0.351167 -0.223832 0.909165
0.334587 0.227315 -0.297578 -0.886419 -0.0222249 0.46235
0.37404 0.21034 -0.285926 0.455758 -0.1249 0.881297
0.334685 0.209881 -0.297578 -0.87457 -0.0113316 0.484767
0.373692 0.192488 -0.286969 0.4815 -0.0485101 0.875102
0.334685 0.192349 -0.297578 -0.867467 -0.00537084 0.497466
0.373645 0.174818 -0.28719 0.499984 -0.0062471 0.866012
0.334685 0.174818 -0.297578 -0.866293 -0.00638908 0.499495
0.373645 0.157286 -0.28719 0.507307 0.00592058 0.861745
0.334685 0.157286 -0.297578 -0.865323 0.0105347 0.501104
0.373645 0.139754 -0.287108 0.516442 0.0342165 0.855638
0.33458 0.139685 -0.297509 -0.866157 0.0774762 0.493729
0.374138 0.12225 -0.286596 0.540469 0.0931494 0.836191
0.333428 0.121583 -0.296417 -0.841584 0.207386 0.498726
0.375984 0.105484 -0.285969 0.63087 0.158286 0.759571
0.329897 0.100922 -0.291994 -0.722199 0.43714 0.536038
0.379422 0.0918171 -0.286131 0.73897 0.20865 0.640616
0.37824 0.0732291 -0.278865 0.713962 0.299163 0.633056
0.291372 0.059532 -0.272778 -0.296833 0.939826 0.169163
0.272116 0.0548196 -0.276063 -0.159081 0.985548 0.0582044
0.254239 0.0527237 -0.276731 -0.0777233 0.996851 0.0157185
0.236637 0.052097 -0.276801 -0.0270131 0.999633 0.00213117
0.219107 0.052097 -0.276801 -0.00467685 0.999989 -2.19729e-006
0.201575 0.052097 -0.276801 -3.42038e-017 1 2.63307e-017
0.184043 0.052097 -0.276801 4.62457e-018 1 -9.82437e-017
0.166511 0.052097 -0.276801 4.44956e-017 1 -1.17804e-022
0.148979 0.052097 -0.276801 -5.99397e-017 1 2.63307e-017
0.131447 0.052097 -0.276801 1.68048e-017 1 -2.07329e-017
0.113915 0.052097 -0.276801 4.34432e-017 1 2.63307e-017
0.0963836 0.052097 -0.276801 -5.45134e-021 1 1.79772e-017
0.0788518 0.052097 -0.276801 -0 1 -0
0.0613199 0.052097 -0.276801 0 1 0
0.0437881 0.052097 -0.276801 2.93775e-017 1 -2.07329e-017
0.0262562 0.052097 -0.276801 -0 1 -0
0.00872437 0.052097 -0.276801 -2.91532e-017 1 -2.07326e-017
-0.00880748 0.052097 -0.276801 -2.12503e-018 1 1.65306e-017
-0.0263382 0.052097 -0.276801 0 1 0
-0.04387 0.052097 -0.276801 -0 1 -0
-0.0614019 0.052097 -0.276801 0 1 0
-0.0789337 0.052097 -0.276801 -5.59293e-017 1 2.63307e-017
-0.0964656 0.052097 -0.276801 0 1 0
-0.113997 0.052097 -0.276801 1.94415e-018 1 -6.05664e-017
-0.131529 0.052097 -0.276801 1.05247e-018 1 2.63307e-017
-0.149061 0.052097 -0.276801 -0 1 -0
-0.166593 0.052097 -0.276801 -5.06357e-018 1 2.63308e-017
-0.184125 0.052097 -0.276801 1.31655e-017 1 -4.5352e-017
-0.201657 0.052097 -0.276801 3.94317e-017 1 2.63306e-017
-0.219189 0.052097 -0.276801 1.31438e-017 1 -8.60966e-017
-0.23672 0.052097 -0.276801 1.09024e-020 1 -9.26805e-018
-0.254252 0.052097 -0.276801 0 1 0
-0.271783 0.052097 -0.276801 6.85344e-018 1 2.21067e-017
-0.289315 0.052097 -0.276801 1.888e-017 1 -2.57961e-017
-0.306847 0.052097 -0.276801 0 1 0
-0.324378 0.052097 -0.276801 -0.00484699 0.999988 2.14009e-010
-0.34191 0.052097 -0.276801 -0.0409294 0.999162 -6.268e-005
-0.359442 0.0514482 -0.276801 -0.137125 0.990537 -0.00579203
-0.376325 0.0488504 -0.27745 -0.367854 0.92984 -0.00896103
-0.39061 0.0423561 -0.279399 -0.73469 0.678375 0.006079
0.388256 0.035584 -0.279862 0.962277 -0.113773 0.247142
-0.399051 0.0319663 -0.283294 -0.98312 0.182961 6.60262e-005
0.384439 0.0203313 -0.286254 0.868404 -0.474578 0.143699
-0.399051 0.0196287 -0.270308 -0.960714 -0.277511 0.00395241
0.373836 0.00908605 -0.279764 0.661738 -0.737755 0.133488
0.359245 0.00224626 -0.277358 0.378501 -0.92035 0.0984551
0.342385 -0.000478694 -0.276871 0.139785 -0.984051 0.110018
0.324598 -0.000941989 -0.27694 0.0274377 -0.995119 0.0947909
0.306835 -0.000640905 -0.276871 -0.0223072 -0.99722 0.0710931
0.289233 -0.000502031 -0.276801 -0.0152425 -0.999491 0.0280101
0.271701 -0.000502031 -0.276801 -0.00404111 -0.999974 0.00589541
0.254169 -0.000502031 -0.276801 -1.40292e-019 -1 -1.20368e-018
0.236637 -0.000502031 -0.276801 -7.19124e-020 -1 -1.20587e-020
0.219107 -0.000502031 -0.276801 -4.51287e-019 -1 4.11419e-019
0.201575 -0.000502031 -0.276801 8.15793e-020 -1 -1.13733e-019
0.184043 -0.000502031 -0.276801 -7.22589e-020 -1 1.53506e-018
0.166511 -0.000502031 -0.276801 6.95244e-019 -1 4.11415e-019
0.148979 -0.000502031 -0.276801 -5.52159e-019 -1 4.11416e-019
0.131447 -0.000502031 -0.276801 9.74909e-019 -1 -1.7008e-019
0.113915 -0.000502031 -0.276801 -1.42605e-018 -1 4.11417e-019
0.0963836 -0.000502031 -0.276801 3.32049e-020 -1 6.67783e-019
0.0788518 -0.000502031 -0.276801 3.32049e-020 -1 -6.67783e-019
0.0613199 -0.000502031 -0.276801 2.38253e-019 -1 4.11416e-019
0.0437881 -0.000502031 -0.276801 1.08239e-018 -1 -4.00886e-019
0.0262562 -0.000502031 -0.276801 7.21591e-019 -1 -4.00898e-019
0.00872437 -0.000502031 -0.276801 6.36309e-019 -1 -1.70088e-019
-0.00880748 -0.000502031 -0.276801 3.32036e-020 -1 -2.5829e-019
-0.0263382 -0.000502031 -0.276801 2.03421e-020 -1 6.12039e-019
-0.04387 -0.000502031 -0.276801 -1.37857e-019 -1 6.13632e-019
-0.0614019 -0.000502031 -0.276801 4.38938e-025 -1 -9.8478e-019
-0.0789337 -0.000502031 -0.276801 1.01221e-018 -1 4.11416e-019
-0.0964656 -0.000502031 -0.276801 3.23389e-022 -1 -3.45451e-019
-0.113997 -0.000502031 -0.276801 -1.07081e-019 -1 -5.30668e-019
-0.131529 -0.000502031 -0.276801 6.16163e-019 -1 -1.13735e-019
-0.149061 -0.000502031 -0.276801 -1.16971e-019 -1 3.94396e-019
-0.166593 -0.000502031 -0.276801 1.4096e-018 -1 -1.13732e-019
-0.184125 -0.000502031 -0.276801 -4.00884e-019 -1 -1.13731e-019
-0.201657 -0.000502031 -0.276801 -9.53037e-019 -1 4.11414e-019
-0.219189 -0.000502031 -0.276801 -1.1987e-019 -1 5.09244e-019
-0.23672 -0.000502031 -0.276801 0.000386986 -1 0.000381391
-0.254252 -0.000502031 -0.276801 0.00338313 -0.999988 0.00342078
-0.271686 -0.000502031 -0.276704 0.00839496 -0.99989 0.0122374
-0.288958 -0.000582554 -0.276606 0.014144 -0.99958 0.0252966
-0.306263 -0.000826452 -0.276704 0.0174828 -0.998575 0.0504191
-0.32373 -0.00106919 -0.276801 0.00500861 -0.996778 0.0800575
-0.341354 -0.00112755 -0.276871 -0.0426373 -0.994314 0.0975759
-0.359141 -0.000293138 -0.27694 -0.155287 -0.983658 0.0911218
-0.376255 0.00260569 -0.276221 -0.410157 -0.910591 0.0509366
-0.39061 0.00923892 -0.274203 -0.743696 -0.667785 0.0313054
0.421062 0.849465 -0.292534 0.402183 0.889558 -0.216647
0.405765 0.855415 -0.28919 0.230791 0.963302 -0.137057
0.392358 0.856937 -0.292148 0.11068 0.989855 -0.089094
0.376373 0.857297 -0.293344 -0.0499129 0.997838 -0.0427518
0.360063 0.855254 -0.294166 -0.246659 0.969096 0.00342253
0.43858 0.837966 -0.292862 0.604444 0.741178 -0.292065
0.343428 0.848911 -0.294704 -0.461288 0.885641 0.0534188
0.455064 0.821378 -0.290211 0.773344 0.54105 -0.33046
0.327737 0.837795 -0.296726 -0.659279 0.742835 0.116393
0.314654 0.824064 -0.301963 -0.792945 0.581073 0.183283
0.46266 0.806748 -0.292776 0.845771 0.405001 -0.347341
0.308367 0.809982 -0.292642 -0.876929 0.429504 0.215689
0.475561 0.769808 -0.286179 0.92744 0.197013 -0.317869
0.467307 0.790806 -0.294556 0.886019 0.299921 -0.353579
0.302129 0.791887 -0.293117 -0.921407 0.294563 0.253459
0.293869 0.786332 -0.316216 -0.91544 0.286567 0.282575
0.476427 0.749717 -0.2939 0.938754 0.135246 -0.316938
0.480163 0.731093 -0.289229 0.95536 0.0550951 -0.290261
0.289576 0.732133 -0.29968 -0.95024 0.0519011 0.307163
0.479797 0.71737 -0.292213 0.956244 0.00301928 -0.292553
0.290333 0.717662 -0.296419 -0.952957 -0.0111843 0.302898
0.479 0.700674 -0.293748 0.951371 -0.0672156 -0.300626
0.291609 0.700743 -0.294824 -0.95089 -0.0844384 0.297789
0.476727 0.683239 -0.294333 0.937208 -0.141573 -0.318746
0.472993 0.665707 -0.294333 0.915883 -0.213637 -0.339877
0.297787 0.665804 -0.294235 -0.939109 -0.199219 0.279975
0.46838 0.648133 -0.29457 0.889703 -0.292324 -0.350678
0.301553 0.64837 -0.294138 -0.931737 -0.243177 0.269688
0.461619 0.631116 -0.295905 0.846797 -0.395599 -0.35558
0.307101 0.630661 -0.293436 -0.926551 -0.278831 0.2525
0.453042 0.617427 -0.299843 0.800286 -0.485608 -0.351748
0.313464 0.611482 -0.291113 -0.917776 -0.311963 0.245695
0.443087 0.602032 -0.295692 0.74336 -0.605047 -0.28519
0.317947 0.59323 -0.297628 -0.926843 -0.312752 0.20772
0.426687 0.58387 -0.290318 0.675328 -0.724054 -0.140277
0.323352 0.578092 -0.295899 -0.923981 -0.299926 0.237283
0.407493 0.566397 -0.29212 0.701204 -0.711211 0.0499212
0.327286 0.559588 -0.296293 -0.90764 -0.255222 0.333245
0.395512 0.549438 -0.294094 0.794959 -0.553953 0.247339
0.386444 0.528891 -0.294207 0.813441 -0.318804 0.486496
0.38439 0.508533 -0.296992 0.864393 -0.102146 0.492332
0.38443 0.490251 -0.297533 0.868122 0.0553101 0.49326
0.386961 0.471417 -0.297943 0.789425 0.259857 0.556132
0.396775 0.450709 -0.300202 0.734503 0.571823 0.36541
0.425849 0.416059 -0.291341 0.698799 0.714957 -0.0227507
0.438646 0.402789 -0.285759 0.809976 0.568313 -0.144774
0.444303 0.389468 -0.294712 0.889544 0.389503 -0.238746
0.450504 0.37045 -0.290164 0.943094 0.186537 -0.275278
0.451588 0.349941 -0.292624 0.956206 -0.000743176 -0.292692
0.449398 0.332339 -0.294208 0.94311 -0.155027 -0.294125
0.444519 0.31503 -0.2963 0.909304 -0.319381 -0.266763
0.436382 0.298757 -0.30239 0.856595 -0.472112 -0.208221
0.42442 0.280574 -0.292236 0.746498 -0.664263 -0.0386658
0.406651 0.262543 -0.291327 0.661173 -0.6987 0.273257
0.395018 0.248527 -0.289871 0.682644 -0.562447 0.46653
0.387474 0.230478 -0.292772 0.735692 -0.326275 0.59355
0.385088 0.210508 -0.296537 0.835257 -0.15792 0.526694
0.38414 0.192419 -0.297509 0.862582 -0.054296 0.502995
0.384035 0.174818 -0.297578 0.865339 -0.00880338 0.50111
0.384035 0.157286 -0.297578 0.866354 0.00915662 0.499347
0.384035 0.139754 -0.297578 0.870417 0.0253958 0.49166
0.384392 0.122417 -0.297563 0.884754 0.0514042 0.463215
0.385341 0.105623 -0.297368 0.903712 0.0882963 0.418937
0.386185 0.0884946 -0.296192 0.901615 0.149881 0.405741
0.318931 0.0827028 -0.288904 -0.638746 0.672738 0.3734
0.388402 0.0702952 -0.294833 0.947481 0.156225 0.279057
0.305942 0.071244 -0.291236 -0.566134 0.795259 0.216924
0.289272 0.0613082 -0.293109 -0.409552 0.909509 0.0711322
0.27184 0.0552969 -0.294194 -0.244731 0.969502 0.0131658
0.254169 0.0527459 -0.294333 -0.113254 0.993557 -0.00414023
0.236637 0.052097 -0.294333 -0.035783 0.999355 -0.00301459
0.219107 0.052097 -0.294333 -0.00484731 0.999988 -3.48456e-017
0.201575 0.052097 -0.294333 -0 1 -0
0.184043 0.052097 -0.294333 1.21917e-031 1 3.93035e-017
0.166511 0.052097 -0.294333 0 1 0
0.148979 0.052097 -0.294333 0 1 0
0.131447 0.052097 -0.294333 1.47715e-017 1 -5.52755e-017
0.113915 0.052097 -0.294333 -0 1 2.77556e-017
0.0963836 0.052097 -0.294333 2.08087e-031 1 1.15479e-017
0.0788518 0.052097 -0.294333 1.96954e-017 1 -1.26027e-017
0.0613199 0.052097 -0.294333 -0 1 -0
0.0437881 0.052097 -0.294333 -0 1 -0
0.0262562 0.052097 -0.294333 -0 1 -0
0.00872437 0.052097 -0.294333 0 1 0
-0.00880748 0.052097 -0.294333 0 1 0
-0.0263382 0.052097 -0.294333 -0 1 -0
-0.04387 0.052097 -0.294333 7.02966e-031 1 3.93035e-017
-0.0614019 0.052097 -0.294333 0 1 0
-0.0789337 0.052097 -0.294333 -0 1 -0
-0.0964656 0.052097 -0.294333 -5.74385e-017 1 2.762e-018
-0.113997 0.052097 -0.294333 0 1 -2.77556e-017
-0.131529 0.052097 -0.294333 1.2138e-031 1 1.15479e-017
-0.149061 0.052097 -0.294333 0 1 0
-0.166593 0.052097 -0.294333 0 1 0
-0.184125 0.052097 -0.294333 -3.05113e-031 1 1.15479e-017
-0.201657 0.052097 -0.294333 0 1 0
-0.219189 0.052097 -0.294333 0 1 0
-0.23672 0.052097 -0.294333 0 1 0
-0.254252 0.052097 -0.294333 0 1 0
-0.271783 0.052097 -0.294333 -1.73e-031 1 1.15479e-017
-0.289315 0.052097 -0.294333 0 1 0
-0.306847 0.052097 -0.294333 0 1 0
-0.324378 0.052097 -0.294333 -0.00484699 0.999988 -6.13923e-017
-0.34191 0.052097 -0.294333 -0.0409294 0.999162 -6.26784e-005
-0.359442 0.0514482 -0.294333 -0.1361 0.99069 -0.00333782
-0.376325 0.0488504 -0.294982 -0.388512 0.921439 -0.00294822
0.39104 0.0519978 -0.295024 0.982689 0.0438526 0.179999
-0.39061 0.0423561 -0.296929 -0.740244 0.672274 -0.00933044
0.390568 0.0349806 -0.297356 0.972139 -0.2001 0.122092
-0.399051 0.0319663 -0.300826 -0.977007 0.213072 0.00764451
0.385604 0.0199695 -0.303107 0.876121 -0.475131 0.0816272
-0.399051 0.0196287 -0.28784 -0.969238 -0.245371 0.0192792
0.375782 0.00854106 -0.296712 0.681899 -0.720156 0.128023
0.361596 0.000862197 -0.294718 0.414962 -0.890902 0.184659
0.344809 -0.0027275 -0.294472 0.171539 -0.959055 0.225364
0.326453 -0.00335418 -0.295028 0.00279589 -0.970394 0.24151
0.307622 -0.00221752 -0.295028 -0.0729929 -0.979501 0.187747
0.289372 -0.000941989 -0.294472 -0.0632128 -0.992702 0.102697
0.271701 -0.000502031 -0.294333 -0.0283184 -0.99896 0.0357468
0.254169 -0.000502031 -0.294333 -0.00648833 -0.999955 0.00699164
0.236637 -0.000502031 -0.294333 -2.03414e-020 -1 1.2501e-019
0.219107 -0.000502031 -0.294333 -0 -1 -0
0.201575 -0.000502031 -0.294333 -4.08817e-033 -1 1.80436e-019
0.184043 -0.000502031 -0.294333 1.75544e-033 -1 1.80436e-019
0.166511 -0.000502031 -0.294333 -0 -1 -0
0.148979 -0.000502031 -0.294333 -3.07741e-019 -1 -7.77144e-019
0.131447 -0.000502031 -0.294333 4.67361e-033 -1 1.80436e-019
0.113915 -0.000502031 -0.294333 3.07741e-019 -1 -7.77144e-019
0.0963836 -0.000502031 -0.294333 2.19511e-033 -1 3.97276e-019
0.0788518 -0.000502031 -0.294333 0 -1 0
0.0613199 -0.000502031 -0.294333 -3.07741e-019 -1 -7.77144e-019
0.0437881 -0.000502031 -0.294333 4.91316e-034 -1 -2.53245e-019
0.0262562 -0.000502031 -0.294333 3.07741e-019 -1 -7.77144e-019
0.00872437 -0.000502031 -0.294333 -0 -1 -0
-0.00880748 -0.000502031 -0.294333 1.1341e-032 -1 3.97276e-019
-0.0263382 -0.000502031 -0.294333 1.83995e-034 -1 -6.86926e-019
-0.04387 -0.000502031 -0.294333 -4.1434e-033 -1 -6.04157e-020
-0.0614019 -0.000502031 -0.294333 -0 -1 -0
-0.0789337 -0.000502031 -0.294333 -0 -1 -0
-0.0964656 -0.000502031 -0.294333 1.81888e-019 -1 5.20644e-020
-0.113997 -0.000502031 -0.294333 -0 -1 -0
-0.131529 -0.000502031 -0.294333 5.02488e-033 -1 6.14117e-019
-0.149061 -0.000502031 -0.294333 -0 -1 -0
-0.166593 -0.000502031 -0.294333 -0 -1 -0
-0.184125 -0.000502031 -0.294333 -6.40141e-034 -1 -6.04138e-020
-0.201657 -0.000502031 -0.294333 -0 -1 -0
-0.219189 -0.000502031 -0.294333 0.000564742 -1 0.000196826
-0.23672 -0.000502031 -0.294333 0.00342667 -0.999991 0.00241814
-0.254154 -0.000502031 -0.294235 0.0127171 -0.999852 0.0115691
-0.271324 -0.000640905 -0.293873 0.0224435 -0.999345 0.0283873
-0.287928 -0.000986333 -0.293303 0.0420658 -0.997189 0.0620064
-0.304259 -0.00163518 -0.2934 0.0572087 -0.993489 0.0985189
-0.321193 -0.00258863 -0.294068 0.0471731 -0.985758 0.161418
-0.338849 -0.00337752 -0.294472 -0.0190646 -0.977711 0.209088
-0.357286 -0.0026213 -0.295068 -0.163208 -0.961812 0.21973
-0.375467 0.00119362 -0.294419 -0.435925 -0.888196 0.145183
-0.390472 0.00887948 -0.291874 -0.772659 -0.627655 0.0951189
0.407437 0.851331 -0.306862 0.331127 0.919756 -0.21072
0.390016 0.856002 -0.306077 0.1445 0.981601 -0.124817
0.376179 0.856347 -0.310146 0.00741812 0.996533 -0.0828613
0.359056 0.854871 -0.311503 -0.199942 0.97961 -0.019664
0.427744 0.838836 -0.312656 0.570937 0.751741 -0.330024
0.34232 0.849101 -0.312959 -0.415895 0.908372 0.0434987
0.444522 0.822888 -0.310157 0.733895 0.565566 -0.376209
0.325509 0.839284 -0.317191 -0.612746 0.781717 0.116021
0.317804 0.835576 -0.331803 -0.649328 0.750629 0.122187
0.456512 0.806157 -0.305782 0.822524 0.412974 -0.391033
0.312308 0.826489 -0.317746 -0.758974 0.625578 0.180582
0.30359 0.809052 -0.311407 -0.866407 0.443003 0.230404
0.294685 0.803159 -0.332876 -0.872295 0.420459 0.249632
0.4583 0.78823 -0.316065 0.856795 0.304678 -0.41602
0.468258 0.770452 -0.30571 0.901145 0.220325 -0.373356
0.289283 0.767907 -0.316386 -0.932233 0.2007 0.301099
0.474985 0.734498 -0.304378 0.937267 0.0802012 -0.339261
0.468351 0.752504 -0.315149 0.90596 0.164189 -0.39023
0.289283 0.756467 -0.309636 -0.940871 0.149358 0.304063
0.285121 0.737995 -0.314984 -0.945977 0.0766457 0.315045
0.277606 0.735184 -0.335968 -0.94314 0.0635688 0.32626
0.474396 0.718038 -0.309304 0.934745 0.00553592 -0.355277
0.284643 0.718048 -0.313493 -0.949696 -0.013357 0.31289
0.278962 0.718438 -0.33109 -0.94704 -0.0165138 0.32069
0.472669 0.700771 -0.311216 0.924636 -0.08265 -0.371777
0.286333 0.700646 -0.312291 -0.947876 -0.0916108 0.305185
0.470233 0.683239 -0.311865 0.906727 -0.162948 -0.388965
0.288907 0.683239 -0.311865 -0.944124 -0.153928 0.291438
0.466094 0.665707 -0.311865 0.886235 -0.229152 -0.402589
0.292034 0.665832 -0.3116 -0.937037 -0.209723 0.279244
0.460371 0.648231 -0.312198 0.860087 -0.298376 -0.413791
0.296634 0.648955 -0.311085 -0.929589 -0.259808 0.261464
0.453068 0.6312 -0.313535 0.826792 -0.387898 -0.407369
0.301918 0.631711 -0.311011 -0.924918 -0.302843 0.22981
0.442033 0.612847 -0.316158 0.767706 -0.508661 -0.389732
0.308306 0.613996 -0.309982 -0.920992 -0.341364 0.187736
0.427913 0.592379 -0.311916 0.738178 -0.604179 -0.300102
0.314053 0.599298 -0.307571 -0.929739 -0.335308 0.152167
0.412919 0.573941 -0.309662 0.753323 -0.623013 -0.210616
0.3194 0.581793 -0.313824 -0.937891 -0.344321 0.0424811
0.402097 0.558742 -0.306738 0.827081 -0.552449 -0.10362
0.325038 0.562144 -0.312101 -0.966094 -0.256219 -0.0318559
0.394362 0.544395 -0.310042 0.909097 -0.407901 -0.084616
0.328349 0.543528 -0.312119 -0.98061 -0.192786 -0.0351878
0.38984 0.526311 -0.311136 0.974418 -0.222726 -0.0300515
0.329639 0.525494 -0.312036 -0.992998 -0.0958697 -0.0690169
0.38821 0.50813 -0.311748 0.998434 -0.0514531 -0.0219356
0.330464 0.507922 -0.311865 -0.998687 -0.0492177 -0.0142179
0.388674 0.490042 -0.312281 0.993647 0.0999703 0.0516906
0.330789 0.49039 -0.311865 -0.999944 -0.00958833 0.00438567
0.391901 0.471379 -0.314201 0.958156 0.286142 0.00773687
0.330692 0.472955 -0.311832 -0.999548 0.0172186 0.0246437
0.40975 0.435569 -0.313813 0.806278 0.586668 -0.0757423
0.398433 0.453273 -0.32021 0.865141 0.463129 -0.192466
0.330431 0.455521 -0.311961 -0.998761 0.0363804 0.0339401
0.422809 0.41818 -0.309584 0.802992 0.584217 -0.117871
0.329912 0.437989 -0.312124 -0.997727 0.0561849 0.0371962
0.435103 0.402077 -0.303549 0.845538 0.496922 -0.195281
0.329114 0.420527 -0.312124 -0.994474 0.0639943 0.0832194
0.328479 0.402967 -0.312319 -0.989658 0.0405214 0.137602
0.441021 0.382816 -0.311478 0.910011 0.286809 -0.299368
0.328237 0.385269 -0.312432 -0.990876 0.0279323 0.131853
0.446593 0.363965 -0.306326 0.943091 0.110936 -0.313485
0.328192 0.367667 -0.312189 -0.991569 0.0173165 0.128416
0.445919 0.349495 -0.309778 0.945842 -0.00248455 -0.324617
0.328192 0.350135 -0.311945 -0.990869 0.0050163 0.134734
0.444131 0.332603 -0.311865 0.936282 -0.13618 -0.323778
0.328192 0.332604 -0.311783 -0.990875 -0.00299845 0.134749
0.440131 0.315865 -0.314197 0.913251 -0.269613 -0.30542
0.328261 0.315197 -0.311264 -0.989842 -0.0162034 0.141242
0.434153 0.302582 -0.318283 0.877175 -0.382676 -0.290041
0.328409 0.298236 -0.310815 -0.987665 -0.0461167 0.149635
0.425156 0.285341 -0.316642 0.820799 -0.517053 -0.242786
0.329193 0.28108 -0.311512 -0.992988 -0.0811082 0.0859982
0.411553 0.264914 -0.31006 0.80486 -0.59074 -0.0568013
0.330297 0.263116 -0.31218 -0.996577 -0.0791732 0.0238034
0.399412 0.246726 -0.303472 0.846136 -0.488796 0.212445
0.330743 0.245084 -0.312003 -0.999055 -0.0400855 0.0167969
0.392673 0.228592 -0.309518 0.938301 -0.344097 0.0344837
0.330789 0.227413 -0.311865 -0.999898 -0.0141428 -0.00210059
0.389337 0.210201 -0.311437 0.987745 -0.156077 0.000411685
0.330789 0.209881 -0.311865 -0.999977 -0.00362135 -0.00576235
0.388163 0.192419 -0.311888 0.998732 -0.0496648 -0.00828466
0.330789 0.192349 -0.311865 -0.999996 -0.000954145 -0.00258435
0.387932 0.174818 -0.311865 0.999966 -0.00822182 -0.000916691
0.330789 0.174818 -0.311865 -0.999993 -0.00358953 -0.000495667
0.387932 0.157286 -0.311865 0.999988 0.00487692 -0.000632888
0.330789 0.157286 -0.311865 -0.99995 0.0100112 -0.000802967
0.387932 0.139754 -0.311865 0.999918 0.0110584 -0.00646659
0.330557 0.139685 -0.311888 -0.997877 0.0649529 -0.00472513
0.388029 0.12232 -0.311897 0.999384 0.0298275 -0.0184807
0.329142 0.121874 -0.311308 -0.978769 0.204765 0.00912586
0.388358 0.104955 -0.311767 0.998261 0.0562165 -0.0177641
0.325047 0.103745 -0.308808 -0.908582 0.410028 0.079723
0.389027 0.0872564 -0.311549 0.993749 0.08973 -0.0664143
0.31694 0.0862271 -0.302736 -0.779292 0.606483 0.157743
0.390363 0.0688995 -0.311786 0.992364 0.116833 -0.0395542
0.304345 0.0721928 -0.308585 -0.636085 0.77159 0.00673801
0.288815 0.0613385 -0.311169 -0.4449 0.89493 -0.0341117
0.271701 0.0550192 -0.311865 -0.25343 0.966791 -0.0329831
0.254169 0.0526654 -0.311865 -0.10935 0.993849 -0.0175115
0.236637 0.052097 -0.311865 -0.0304769 0.999521 -0.00528813
0.219107 0.052097 -0.311865 -0.00424579 0.999991 -1.98066e-017
0.201575 0.052097 -0.311865 -0 1 -0
0.184043 0.052097 -0.311865 -8.32821e-032 1 1.15479e-017
0.166511 0.052097 -0.311865 0 1 0
0.148979 0.052097 -0.311865 1.35295e-031 1 2.54257e-017
0.131447 0.052097 -0.311865 0 1 0
0.113915 0.052097 -0.311865 1.2322e-031 1 1.15479e-017
0.0963836 0.052097 -0.311865 0 1 0
0.0788518 0.052097 -0.311865 -1.96954e-017 1 -1.26027e-017
0.0613199 0.052097 -0.311865 -0 1 -0
0.0437881 0.052097 -0.311865 -0 1 -0
0.0262562 0.052097 -0.311865 0 1 0
0.00872437 0.052097 -0.311865 -0 1 2.77556e-017
-0.00880748 0.052097 -0.311865 0 1 0
-0.0263382 0.052097 -0.311865 0 1 0
-0.04387 0.052097 -0.311865 0 1 0
-0.0614019 0.052097 -0.311865 0 1 0
-0.0789337 0.052097 -0.311865 0 1 0
-0.0964656 0.052097 -0.311865 -5.74383e-017 1 -1.52926e-017
-0.113997 0.052097 -0.311865 2.60104e-017 1 -1.89752e-017
-0.131529 0.052097 -0.311865 2.1369e-031 1 1.15479e-017
-0.149061 0.052097 -0.311865 0 1 0
-0.166593 0.052097 -0.311865 -4.3462e-034 1 -4.00968e-017
-0.184125 0.052097 -0.311865 -0 1 -0
-0.201657 0.052097 -0.311865 -1.20169e-032 1 1.15479e-017
-0.219189 0.052097 -0.311865 0 1 0
-0.23672 0.052097 -0.311865 -0 1 2.77556e-017
-0.254252 0.052097 -0.311865 0 1 0
-0.271783 0.052097 -0.311865 0 1 0
-0.289315 0.052097 -0.311865 -9.20786e-019 1 2.4799e-017
-0.306847 0.052097 -0.311865 0 1 0
-0.324378 0.052097 -0.311865 -0.00484699 0.999988 0
-0.34191 0.052097 -0.311865 -0.0409294 0.999162 -6.26784e-005
-0.359442 0.0514482 -0.311865 -0.136277 0.990665 -0.00349355
-0.376325 0.0488504 -0.312513 -0.389491 0.921024 -0.00335601
0.391722 0.0506161 -0.312106 0.999931 -0.00104771 -0.011713
-0.39061 0.0423561 -0.314461 -0.733928 0.679171 -0.00872885
0.390692 0.0339327 -0.31397 0.980581 -0.195982 -0.00717814
-0.399098 0.0317469 -0.318543 -0.952856 0.301127 0.0372506
0.385578 0.0184326 -0.319828 0.906858 -0.417467 0.0577041
-0.399006 0.0192576 -0.305534 -0.977857 -0.19078 0.0860214
0.378421 0.00880247 -0.310962 0.750926 -0.647855 0.128042
0.366596 -0.000843964 -0.311522 0.548396 -0.804008 0.229856
0.350286 -0.00728697 -0.311534 0.289968 -0.890662 0.3502
0.332251 -0.00953345 -0.312235 0.0522717 -0.904259 0.423773
0.310382 -0.00884958 -0.315551 -0.148096 -0.905099 0.398578
0.289928 -0.00335418 -0.312722 -0.165797 -0.957978 0.234073
0.271771 -0.00112755 -0.311933 -0.0983277 -0.989338 0.107431
0.254169 -0.000502031 -0.311865 -0.0357435 -0.998821 0.0328387
0.236637 -0.000502031 -0.311865 -0.00684844 -0.99996 0.00570931
0.219107 -0.000502031 -0.311865 3.32154e-020 -1 -2.79891e-019
0.201575 -0.000502031 -0.311865 -9.76493e-033 -1 -2.53245e-019
0.184043 -0.000502031 -0.311865 2.30805e-019 -1 -4.76283e-019
0.166511 -0.000502031 -0.311865 -0 -1 -0
0.148979 -0.000502031 -0.311865 -6.04579e-034 -1 1.80436e-019
0.131447 -0.000502031 -0.311865 1.3124e-032 -1 1.19434e-018
0.113915 -0.000502031 -0.311865 -2.30805e-019 -1 -8.63679e-019
0.0963836 -0.000502031 -0.311865 -0 -1 -0
0.0788518 -0.000502031 -0.311865 0 -1 0
0.0613199 -0.000502031 -0.311865 3.07741e-019 -1 -1.63027e-019
0.0437881 -0.000502031 -0.311865 -7.25489e-033 -1 3.97276e-019
0.0262562 -0.000502031 -0.311865 -0 -1 -0
0.00872437 -0.000502031 -0.311865 4.95435e-033 -1 -2.53245e-019
-0.00880748 -0.000502031 -0.311865 1.94766e-033 -1 3.97276e-019
-0.0263382 -0.000502031 -0.311865 5.8927e-034 -1 -2.53245e-019
-0.04387 -0.000502031 -0.311865 1.41243e-033 -1 -4.46074e-019
-0.0614019 -0.000502031 -0.311865 -3.07741e-019 -1 5.23899e-019
-0.0789337 -0.000502031 -0.311865 -0 -1 -0
-0.0964656 -0.000502031 -0.311865 1.14132e-018 -1 1.25047e-018
-0.113997 -0.000502031 -0.311865 2.47214e-019 -1 1.26486e-018
-0.131529 -0.000502031 -0.311865 2.30805e-019 -1 -4.76283e-019
-0.149061 -0.000502031 -0.311865 -2.30805e-019 -1 -4.76283e-019
-0.166593 -0.000502031 -0.311865 7.69351e-020 -1 -5.66501e-019
-0.184125 -0.000502031 -0.311865 2.30805e-019 -1 -5.10173e-019
-0.201657 -0.000502031 -0.311865 -2.30805e-019 -1 -8.63679e-019
-0.219189 -0.000502031 -0.311865 0.00220901 -0.999996 0.00165798
-0.23672 -0.000502031 -0.311865 0.00983252 -0.999941 0.0046856
