ply
format ascii 1.0
element vertex 823
property float x
property float y
property float z
property float nx
property float ny
property float nz
end_header
0.17219 0.333129 -0.260179 -0.0101094 0.999645 0.0246688
0.154651 0.333047 -0.260277 -0.00930984 0.999909 0.00972055
0.136947 0.333047 -0.260377 -0.00249266 0.999995 0.00204082
0.119144 0.333047 -0.260377 -0.000343261 1 9.83283e-005
0.101342 0.333047 -0.260377 0 1 0
0.0835396 0.333047 -0.260377 -4.3671e-016 1 -5.27129e-016
0.0657372 0.333047 -0.260377 -0 1 -0
0.0479349 0.333047 -0.260377 6.81958e-017 1 -3.71961e-016
0.0301325 0.333047 -0.260377 7.00256e-016 1 -2.94377e-016
0.0123301 0.333047 -0.260377 6.58868e-017 1 -2.55585e-016
-0.00547223 0.333047 -0.260377 -4.06245e-016 1 -4.10753e-016
-0.0232746 0.333047 -0.260377 -6.58866e-017 1 -5.6592e-016
-0.041077 0.333047 -0.260377 4.36709e-016 1 -5.27132e-016
-0.0588793 0.333047 -0.260377 0 1 0
-0.0766817 0.333047 -0.260377 -0 1 -0
-0.0944841 0.333047 -0.260377 3.64441e-016 1 4.15895e-016
-0.112288 0.333047 -0.260377 5.03089e-016 1 2.85835e-016
-0.13009 0.333047 -0.260377 0 1 0
-0.147892 0.333047 -0.260377 -2.88176e-031 1 1.9042e-016
-0.165695 0.333047 -0.260377 -9.03848e-017 1 -5.2713e-016
-0.183497 0.333047 -0.260377 -1.67747e-017 1 1.854e-017
-0.201299 0.333047 -0.260377 0.00155313 0.999988 0.00473214
-0.219102 0.333047 -0.260377 -0.00801445 0.999765 0.0201309
-0.236975 0.332857 -0.260447 -0.0711749 0.996402 0.0460127
-0.255014 0.331197 -0.260588 -0.255034 0.966199 0.0376468
0.259289 0.313257 -0.255112 0.696676 0.703027 -0.14281
-0.272198 0.324763 -0.261633 -0.519268 0.853878 -0.0354076
0.272952 0.293768 -0.254697 0.897643 0.353187 -0.263622
-0.287447 0.310442 -0.265939 -0.792159 0.59197 -0.148512
-0.297124 0.293252 -0.265699 -0.926757 0.303074 -0.221964
0.277359 0.275527 -0.253562 0.956116 0.0407154 -0.290147
-0.302257 0.280086 -0.259594 -0.971629 0.0970706 -0.215672
0.274698 0.26213 -0.259439 0.937686 -0.199058 -0.284816
0.172651 0.253723 -0.260277 -0.309547 -0.912601 0.267094
0.155018 0.258742 -0.26025 -0.203623 -0.958329 0.200357
0.137187 0.260858 -0.260418 -0.106063 -0.985165 0.134913
0.119215 0.261692 -0.260447 -0.0485676 -0.995606 0.0800633
0.101342 0.261833 -0.260377 -0.0188725 -0.999026 0.039894
0.0835396 0.261833 -0.260377 -0.00698472 -0.999792 0.0191793
0.0657372 0.261833 -0.260377 -0.00182286 -0.999958 0.00898029
0.0479349 0.261833 -0.260377 -0.000555026 -0.999978 0.00656424
0.0301325 0.261833 -0.260377 6.7419e-005 -0.999986 0.00538538
0.0123301 0.261833 -0.260377 0.00043481 -0.999984 0.00564021
-0.00547223 0.261833 -0.260377 7.47083e-005 -0.999985 0.00538769
-0.0232746 0.261833 -0.260377 0.000797541 -0.999982 0.00602145
-0.041077 0.261833 -0.260377 0.0017287 -0.999975 0.0068841
-0.0588793 0.261833 -0.260377 0.00437984 -0.999933 0.010713
-0.0765834 0.261833 -0.260277 0.00967829 -0.999756 0.0198689
-0.0941225 0.261751 -0.260179 0.0145467 -0.99938 0.0320574
-0.11159 0.261456 -0.260009 0.0242381 -0.998299 0.053026
-0.128616 0.261103 -0.259429 0.0461909 -0.995407 0.0838523
-0.145354 0.260515 -0.259189 0.070675 -0.989592 0.125348
-0.162629 0.259404 -0.258607 0.111807 -0.979286 0.168813
-0.177287 0.258658 -0.254703 0.159784 -0.968055 0.193231
-0.195172 0.254392 -0.255577 0.241554 -0.936953 0.252528
-0.303389 0.266797 -0.254001 -0.973246 -0.161542 -0.163392
0.269047 0.250179 -0.265552 0.875382 -0.412352 -0.252333
0.209027 0.235365 -0.261083 -0.303176 -0.905068 0.298222
0.190496 0.245926 -0.260518 -0.373718 -0.871727 0.316901
-0.216226 0.245895 -0.260193 0.323958 -0.887221 0.328467
-0.231797 0.23665 -0.265285 0.299071 -0.878392 0.372805
-0.296859 0.249989 -0.254711 -0.851354 -0.514511 -0.102347
0.260134 0.237119 -0.265418 0.670274 -0.731961 -0.122334
0.245456 0.228619 -0.261723 0.289308 -0.952767 0.0923883
0.228078 0.228619 -0.261224 -0.0588896 -0.961217 0.269434
-0.250385 0.230472 -0.26538 0.108545 -0.931893 0.346112
-0.270352 0.229995 -0.262145 -0.303814 -0.939125 0.160438
-0.284629 0.236246 -0.259907 -0.553859 -0.831702 0.0388817
0.24057 0.327082 -0.277321 0.525492 0.835803 0.15903
0.223756 0.333606 -0.278279 0.239317 0.942209 0.234457
0.205698 0.335 -0.277887 0.0347616 0.984968 0.1692
0.188178 0.334291 -0.277232 -0.0422853 0.995813 0.0810479
0.171554 0.333538 -0.277232 -0.0470472 0.998002 0.042174
0.154623 0.333187 -0.27791 -0.0245985 0.999683 0.00533126
0.136947 0.333047 -0.278179 -0.00674965 0.999972 -0.00335662
0.119144 0.333047 -0.278179 0.000254796 0.999993 -0.0036386
0.101342 0.333047 -0.278179 0.000999897 0.999998 -0.00157762
0.0835396 0.333047 -0.278179 8.44277e-005 1 -0.000287042
0.0657372 0.333047 -0.278179 -1.21146e-016 1 -2.72457e-018
0.0479349 0.333047 -0.278179 1.13194e-016 1 -9.03824e-017
0.0301325 0.333047 -0.278179 -2.20772e-016 1 -9.03822e-017
0.0123301 0.333047 -0.278179 -6.69458e-021 1 2.21425e-017
-0.00547223 0.333047 -0.278179 -4.99994e-016 1 2.77222e-016
-0.0232746 0.333047 -0.278179 2.91996e-016 1 -9.03821e-017
-0.041077 0.333047 -0.278179 1.87602e-016 1 -9.03819e-017
-0.0588793 0.333047 -0.278179 0 1 0
-0.0766817 0.333047 -0.278179 -9.90822e-017 1 -9.03823e-017
-0.0944841 0.333047 -0.278179 -3.46081e-016 1 -9.03796e-017
-0.112288 0.333047 -0.278179 -9.12654e-018 1 -9.03802e-017
-0.13009 0.333047 -0.278179 3.63247e-016 1 -9.03819e-017
-0.147892 0.333047 -0.278179 -3.65519e-016 1 9.40268e-017
-0.165695 0.333047 -0.278179 -0.000313405 1 -0.000845397
-0.183497 0.333047 -0.278179 0.00471287 0.999987 0.00173151
-0.201299 0.333047 -0.278179 0.0191807 0.999616 0.0200001
-0.219243 0.333493 -0.27832 0.0276136 0.996813 0.0748371
-0.23769 0.334127 -0.278645 -0.0445954 0.986834 0.155466
-0.25626 0.332362 -0.278753 -0.311166 0.933712 0.177083
0.252782 0.31748 -0.273112 0.712802 0.701345 0.00543929
-0.272839 0.324916 -0.280458 -0.639891 0.766764 0.0511199
-0.283223 0.312212 -0.287305 -0.843862 0.52296 -0.120039
0.271423 0.279767 -0.269964 0.962019 0.0940169 -0.256281
0.263585 0.301277 -0.277795 0.901052 0.409451 -0.143022
-0.291948 0.2957 -0.280999 -0.925188 0.298759 -0.234028
-0.296931 0.278418 -0.277307 -0.959178 0.0764225 -0.27228
0.268932 0.263647 -0.277467 0.94839 -0.152497 -0.278031
0.155795 0.253726 -0.277444 -0.270962 -0.911728 0.308757
0.138303 0.257967 -0.277982 -0.180372 -0.954017 0.239411
0.120063 0.259831 -0.278532 -0.108342 -0.97726 0.18228
0.101724 0.26107 -0.278363 -0.0614163 -0.990238 0.125128
0.08361 0.261692 -0.27825 -0.0328665 -0.996237 0.0801936
0.0657372 0.261833 -0.278179 -0.0129558 -0.998636 0.0505828
0.0479349 0.261833 -0.278179 -0.00407414 -0.999166 0.0406379
0.0301325 0.261833 -0.278179 -0.00153492 -0.999277 0.0379791
0.0123301 0.261833 -0.278179 -0.00153492 -0.999277 0.0379791
-0.00547223 0.261833 -0.278179 -0.00121563 -0.999274 0.0380678
-0.0232746 0.261833 -0.278179 0.000219587 -0.999244 0.0388733
-0.0409787 0.261833 -0.27808 0.00430831 -0.999158 0.0408111
-0.0585165 0.261751 -0.277982 0.0113356 -0.998976 0.0438113
-0.0759852 0.261456 -0.277812 0.0233606 -0.998003 0.0586941
-0.093011 0.261103 -0.277232 0.0409465 -0.995415 0.0864444
-0.109748 0.260515 -0.276991 0.0595836 -0.990707 0.122266
-0.126831 0.259737 -0.276553 0.0819874 -0.983692 0.160089
-0.141071 0.259389 -0.273279 0.104123 -0.977677 0.182499
-0.156478 0.256543 -0.276013 0.15547 -0.955639 0.250166
-0.177894 0.252736 -0.273827 0.222228 -0.927116 0.301778
-0.298645 0.262583 -0.269778 -0.9544 -0.201216 -0.220527
0.264042 0.248222 -0.280166 0.866083 -0.438048 -0.240861
0.191159 0.236486 -0.278951 -0.388593 -0.828843 0.40251
0.173019 0.246619 -0.277854 -0.356318 -0.864657 0.354125
-0.199596 0.244816 -0.277153 0.315089 -0.878133 0.360003
-0.218244 0.23545 -0.279083 0.347594 -0.842934 0.410658
-0.290266 0.244047 -0.277565 -0.810536 -0.566652 -0.148111
0.257012 0.237096 -0.283456 0.768552 -0.628026 -0.122115
0.248651 0.227664 -0.280454 0.542475 -0.839325 0.0354229
0.23327 0.221965 -0.279857 0.150168 -0.939952 0.306497
0.211945 0.224386 -0.282232 -0.173091 -0.882628 0.437043
-0.235388 0.227151 -0.280471 0.254469 -0.862154 0.438105
-0.24928 0.220276 -0.283911 0.0113402 -0.884629 0.466157
-0.265721 0.222877 -0.282663 -0.382384 -0.871375 0.30739
-0.279543 0.23186 -0.27519 -0.601983 -0.794443 0.0804818
0.238397 0.367359 -0.325313 0.232375 0.715302 0.659049
0.224867 0.36304 -0.322375 -0.134509 0.737757 0.66153
-0.256181 0.362925 -0.324202 -0.0849471 0.600806 0.794869
-0.270478 0.362603 -0.327768 -0.687922 0.412223 0.597357
0.239024 0.336514 -0.298451 0.508909 0.756866 0.410079
0.219304 0.340258 -0.295666 0.0830005 0.918373 0.386914
0.230549 0.351135 -0.311235 0.247023 0.765382 0.59428
0.200787 0.338276 -0.294399 -0.132141 0.968104 0.212871
0.212111 0.348886 -0.313116 -0.276223 0.873647 0.400552
0.185255 0.335288 -0.291064 -0.103468 0.989167 0.104128
0.171896 0.334465 -0.294611 -0.0897692 0.995804 0.0177555
0.154551 0.333352 -0.295784 -0.052632 0.998613 -0.0014143
0.136679 0.332975 -0.295854 -0.0158594 0.999509 -0.0270332
0.119046 0.333047 -0.295882 0.00276964 0.99981 -0.0193216
0.101342 0.333047 -0.295982 0.00461022 0.999939 -0.0100439
0.0835396 0.333047 -0.295982 0.00220134 0.999988 -0.00438998
0.0657372 0.333047 -0.295982 0.000748431 0.999999 -0.00144171
0.0479349 0.333047 -0.295982 0.000105894 1 -0.00022283
0.0301325 0.333047 -0.295982 6.98915e-016 1 1.18517e-016
0.0123301 0.333047 -0.295982 0 1 0
-0.00547223 0.333047 -0.295982 3.40359e-016 1 1.17116e-016
-0.0232746 0.333047 -0.295982 0 1 0
-0.041077 0.333047 -0.295982 4.36709e-016 1 -1.54435e-016
-0.0588793 0.333047 -0.295982 2.63547e-016 1 -3.80521e-017
-0.0766817 0.333047 -0.295982 -3.79044e-016 1 -9.03816e-017
-0.0944841 0.333047 -0.295982 -2.29713e-016 1 -5.2658e-022
-0.112288 0.333047 -0.295982 -8.7474e-017 1 -2.26001e-016
-0.13009 0.333047 -0.295982 -0.000313402 1 -0.000845401
-0.147892 0.333047 -0.295982 -0.00206945 0.999982 -0.00566038
-0.165695 0.333047 -0.295982 -0.000100191 0.999919 -0.0126898
-0.183497 0.333047 -0.295982 0.0205034 0.999752 -0.00870085
-0.20144 0.333588 -0.296122 0.0732106 0.996786 0.0325281
-0.22003 0.335505 -0.296671 0.117454 0.981707 0.149854
-0.240731 0.339532 -0.298696 -0.0478603 0.949428 0.310316
-0.239037 0.350975 -0.318964 0.209263 0.882868 0.42042
-0.26094 0.33674 -0.296405 -0.444492 0.833843 0.327311
-0.252825 0.347233 -0.309525 -0.178513 0.828274 0.531126
-0.268158 0.344537 -0.31639 -0.690407 0.554647 0.464441
0.253924 0.319286 -0.293588 0.826161 0.552641 0.109756
0.253035 0.334342 -0.314531 0.86064 0.421587 0.285591
-0.274418 0.326832 -0.299113 -0.765742 0.62893 0.134481
-0.281174 0.312028 -0.305189 -0.928046 0.35309 -0.118568
0.261273 0.303563 -0.298791 0.958721 0.274747 -0.0732696
-0.286563 0.296535 -0.298888 -0.934978 0.22827 -0.271495
0.265258 0.283855 -0.292702 0.968235 0.0636127 -0.241817
-0.290504 0.278941 -0.29543 -0.942309 0.0442008 -0.331812
0.263012 0.263433 -0.295722 0.92633 -0.215479 -0.309001
0.141766 0.252145 -0.292349 -0.244693 -0.911348 0.331015
0.123065 0.253959 -0.298214 -0.187133 -0.930529 0.314798
0.103145 0.258227 -0.296495 -0.123634 -0.962736 0.240529
0.0846231 0.259831 -0.296335 -0.0808949 -0.97913 0.186442
0.0664725 0.260858 -0.296024 -0.0407544 -0.988679 0.144403
0.0485937 0.261173 -0.295982 -0.0149333 -0.992248 0.12337
0.0307914 0.261173 -0.295982 -0.00485497 -0.993085 0.117295
0.012989 0.261173 -0.295982 -0.00196318 -0.99328 0.115721
-0.00481337 0.261173 -0.295982 -0.00103023 -0.993246 0.11602
-0.0226157 0.261173 -0.295982 0.00161839 -0.993132 0.116992
-0.040315 0.261126 -0.295712 0.00823869 -0.992895 0.11871
-0.0574051 0.261021 -0.295035 0.0250921 -0.991724 0.125908
-0.0741434 0.260515 -0.294795 0.0487174 -0.988251 0.144866
-0.091225 0.259737 -0.294357 0.0706733 -0.982597 0.171778
-0.105466 0.259389 -0.291081 0.0898733 -0.978542 0.185412
-0.120792 0.256888 -0.293877 0.123001 -0.961427 0.246025
-0.141679 0.253679 -0.292058 0.163002 -0.942648 0.291281
-0.291716 0.259068 -0.290784 -0.932159 -0.208634 -0.29589
0.25852 0.246957 -0.297028 0.875241 -0.406736 -0.261763
0.173427 0.237386 -0.295242 -0.399876 -0.824379 0.400624
0.156209 0.246363 -0.294522 -0.325951 -0.866114 0.378949
-0.163269 0.248902 -0.294805 0.226387 -0.917497 0.327031
-0.183672 0.241496 -0.295849 0.297579 -0.893131 0.337289
-0.287437 0.244316 -0.293017 -0.89465 -0.401426 -0.196108
0.251212 0.232759 -0.29773 0.807335 -0.572211 -0.14417
0.191089 0.225379 -0.297657 -0.429998 -0.796414 0.425236
-0.203405 0.233237 -0.296518 0.377307 -0.849554 0.368643
-0.221498 0.223382 -0.29649 0.409669 -0.804886 0.429336
-0.279353 0.231274 -0.293944 -0.80725 -0.588169 -0.0490393
0.239883 0.218609 -0.300387 0.583423 -0.791801 0.180747
0.224602 0.211022 -0.298291 0.188756 -0.863343 0.467986
0.207639 0.210934 -0.303848 -0.212151 -0.862577 0.459296
-0.238446 0.214143 -0.296963 0.236075 -0.826792 0.510572
-0.254281 0.209835 -0.298054 -0.244723 -0.844047 0.477175
-0.266937 0.211116 -0.305623 -0.653304 -0.73833 0.167523
0.219395 0.198368 -0.311952 0.060743 -0.912204 0.40521
-0.257569 0.196652 -0.310962 -0.381778 -0.750335 0.53967
0.229826 -0.149764 -0.327229 0.240657 0.0261123 -0.970259
0.225394 -0.152573 -0.328051 0.680366 -0.0141085 -0.732736
0.226303 -0.166479 -0.327031 0.626677 0.179289 -0.758374
0.22733 -0.18365 -0.326876 0.505682 0.0532653 -0.861074
0.228198 -0.201551 -0.326871 0.542586 -0.0676709 -0.83727
0.22886 -0.219194 -0.326772 0.490843 -0.0447396 -0.870098
0.229222 -0.236732 -0.326871 0.441974 -0.0805113 -0.893408
0.229256 -0.254436 -0.326971 0.424224 -0.109521 -0.89891
0.229256 -0.272239 -0.326971 0.33897 0.121097 -0.932971
-0.263853 -0.269185 -0.327935 -0.568893 0.313582 -0.760281
0.229256 -0.290041 -0.326971 0.33897 -0.121097 -0.932971
-0.268527 -0.287413 -0.328727 -0.793047 0.184952 0.580404
0.229256 -0.307843 -0.326971 0.342184 0.130078 -0.930586
-0.269022 -0.307278 -0.327502 0.375867 -0.151784 -0.914159
0.229767 -0.325448 -0.326691 0.406403 0.0369787 -0.912945
-0.268954 -0.325716 -0.327099 0.349683 0.122143 -0.928872
0.231387 -0.342234 -0.326826 0.356941 0.0662392 -0.931775
-0.267828 -0.343646 -0.327514 0.376239 0.00424575 -0.926513
0.239754 0.435111 -0.348213 0.973895 -0.208239 0.0903597
-0.263638 0.437985 -0.34752 -0.0657025 -0.429016 -0.900904
-0.2733 0.434942 -0.34893 0.659672 -0.38957 -0.642703
0.233699 0.423717 -0.345314 0.988461 -0.146115 -0.0399475
-0.270887 0.420756 -0.345522 0.481415 -0.165669 -0.860694
0.229612 0.405449 -0.342735 -0.381833 0.400437 0.832979
-0.268977 0.40227 -0.342207 0.424381 -0.400362 -0.812165
0.230254 0.382366 -0.333178 -0.110035 0.685443 0.719764
0.2189 0.383874 -0.343381 -0.767795 0.531404 0.357913
-0.24618 0.388684 -0.34195 -0.561851 -0.455644 -0.690443
-0.252375 0.380775 -0.333863 -0.354 -0.337413 -0.872259
-0.266564 0.380808 -0.334514 0.424175 -0.381764 -0.821177
0.250135 0.36824 -0.334506 0.824831 0.452818 0.338539
0.214405 0.363343 -0.332594 -0.692823 0.704754 0.152704
-0.27739 0.367687 -0.338404 -0.902237 0.21156 0.375779
0.245833 0.35137 -0.318769 0.610352 0.569873 0.550196
0.190828 0.339229 -0.309521 -0.278458 0.956664 0.0851763
0.17151 0.334367 -0.313301 -0.180183 0.9814 -0.0662445
0.153234 0.332573 -0.313507 -0.0642728 0.99371 -0.0917042
0.13568 0.332342 -0.312993 0.00393759 0.996245 -0.0864895
0.118448 0.332669 -0.313416 0.018552 0.998106 -0.0586567
0.100979 0.332964 -0.313586 0.0163915 0.999184 -0.0369005
0.0834413 0.333047 -0.313685 0.0108274 0.999689 -0.0224878
0.0657372 0.333047 -0.313784 0.0047906 0.999907 -0.0127375
0.0479349 0.333047 -0.313784 0.00144125 0.999967 -0.00804504
0.0301325 0.333047 -0.313784 7.91376e-005 0.99998 -0.00635935
0.0123301 0.333047 -0.313784 0.000687783 0.999996 -0.00278248
-0.00547223 0.333047 -0.313784 0.00122696 0.999998 -0.00156659
-0.0232746 0.333047 -0.313784 0.000227 1 -0.000383176
-0.041077 0.333047 -0.313784 -0.000105146 1 -0.000691433
-0.0588793 0.333047 -0.313784 -6.65019e-006 0.999995 -0.00328672
-0.0766817 0.333047 -0.313784 -0.000793018 0.999984 -0.00555085
-0.0944841 0.333047 -0.313784 -0.000589705 0.999979 -0.00646015
-0.112288 0.333047 -0.313784 -0.00182263 0.999958 -0.00897978
-0.13009 0.333047 -0.313784 -0.00737773 0.999769 -0.0201814
-0.147892 0.333047 -0.313784 -0.0127576 0.999175 -0.0385432
-0.165765 0.332905 -0.313854 -0.00610688 0.997886 -0.0646958
-0.183945 0.332905 -0.314067 0.0548645 0.996149 -0.0683947
-0.202774 0.334336 -0.314728 0.171576 0.98469 -0.0307917
-0.221764 0.340122 -0.315685 0.333494 0.932761 0.136887
-0.22664 0.346969 -0.333897 0.575709 0.811731 -0.0982483
-0.276114 0.324657 -0.316737 -0.956542 0.29124 -0.0143654
0.258836 0.316974 -0.314101 0.975065 0.221627 -0.0114375
-0.278268 0.309414 -0.319294 -0.958493 0.163005 -0.233924
0.260691 0.299097 -0.313748 0.975666 0.0388299 -0.215798
-0.281181 0.296402 -0.315316 -0.925702 0.125285 -0.356902
0.25998 0.280446 -0.312992 0.937883 -0.0894847 -0.335214
-0.283491 0.280188 -0.312572 -0.906485 0.0118546 -0.422071
0.256557 0.262338 -0.313165 0.889105 -0.218314 -0.402283
0.106086 0.252345 -0.311617 -0.169317 -0.927884 0.332209
0.08775 0.254013 -0.316036 -0.139643 -0.937891 0.317586
0.0688119 0.257677 -0.313549 -0.0786567 -0.960748 0.266039
0.0512413 0.258329 -0.313586 -0.0377287 -0.969062 0.243917
0.0334292 0.258537 -0.313784 -0.0126404 -0.971667 0.236017
0.0156268 0.258537 -0.313784 -0.00148671 -0.972568 0.232613
-0.00217554 0.258537 -0.313784 0.00140496 -0.972621 0.232394
-0.0199779 0.258537 -0.313784 0.005208 -0.97234 0.233513
-0.0378701 0.258442 -0.313544 0.0179064 -0.971344 0.237004
-0.0555596 0.258442 -0.312427 0.0389563 -0.970673 0.237227
-0.0698602 0.258866 -0.308883 0.0595239 -0.972806 0.223844
-0.0851873 0.256452 -0.311679 0.0944665 -0.957964 0.270891
-0.106074 0.253679 -0.30986 0.13732 -0.94488 0.29723
-0.283576 0.261918 -0.310639 -0.901751 -0.116573 -0.41624
0.251336 0.245527 -0.313563 0.867726 -0.320256 -0.380116
0.15828 0.237528 -0.309065 -0.361412 -0.856213 0.369162
0.137566 0.243433 -0.31291 -0.273027 -0.882544 0.382847
0.117383 0.247704 -0.316766 -0.208953 -0.906768 0.36621
-0.127584 0.249553 -0.312668 0.174797 -0.929237 0.325522
-0.147892 0.243796 -0.313783 0.199918 -0.923081 0.328565
-0.1682 0.237696 -0.314899 0.252348 -0.917806 0.306519
-0.282171 0.243862 -0.306424 -0.911135 -0.304491 -0.277702
0.245701 0.22955 -0.314707 0.848862 -0.453679 -0.271308
0.172806 0.228268 -0.313124 -0.417022 -0.860031 0.294007
-0.189706 0.230332 -0.317441 0.337432 -0.911142 0.23656
-0.210356 0.220888 -0.314007 0.441382 -0.875085 0.198515
-0.272242 0.22336 -0.317024 -0.882884 -0.416161 -0.217544
0.239553 0.216024 -0.318497 0.785253 -0.618514 -0.0286085
0.190377 0.215099 -0.316239 -0.487994 -0.842187 0.229309
-0.227717 0.209901 -0.312565 0.492846 -0.84793 0.195237
-0.267231 0.204859 -0.320125 -0.871711 -0.486092 -0.0619322
0.231201 0.199664 -0.317879 0.670142 -0.686782 0.281495
0.20775 0.197107 -0.321748 -0.528729 -0.793928 0.300208
-0.244659 0.196767 -0.313486 0.255967 -0.805489 0.534479
-0.262525 0.192084 -0.319299 -0.95464 -0.297693 -0.00639259
0.222253 0.179295 -0.324488 0.986357 0.0575004 0.154253
0.217222 0.177932 -0.33181 0.624211 0.02817 -0.780747
-0.25493 0.177932 -0.322849 -0.781545 0.0336162 -0.622942
-0.258296 0.17448 -0.328426 -0.598128 0.0568018 -0.799385
0.225643 0.156703 -0.329638 0.683038 0.0026906 -0.730378
0.223471 0.156659 -0.330647 0.52446 -0.0247854 -0.851074
-0.253767 0.156659 -0.329097 -0.855681 -0.0255397 -0.516874
-0.256001 0.156003 -0.329884 -0.894068 -0.033139 -0.446703
0.225983 0.137429 -0.33075 0.450869 0.00251569 -0.892587
0.225089 0.1375 -0.331351 0.168424 -0.0184993 -0.985541
-0.254471 0.1375 -0.330715 -0.985492 -0.0184954 -0.168708
-0.255472 0.137429 -0.331279 -0.967596 -0.0124318 -0.252198
0.22596 0.119416 -0.330926 0.994582 -0.00113284 0.103952
0.2253 0.119416 -0.331586 -0.483453 -0.0155495 -0.875232
-0.254707 0.119416 -0.330926 -0.875301 -0.0155619 0.483328
-0.255365 0.119416 -0.331586 -0.99389 -0.00614164 -0.110205
0.22596 0.101612 -0.330926 0.974793 -0.00190755 0.223101
0.2253 0.101612 -0.331586 0.968126 -0.00191516 -0.250456
-0.254707 0.101612 -0.330926 0.252077 0.00191746 0.967705
-0.255365 0.101612 -0.331586 0.549329 0.00167601 0.835604
0.22596 0.0838098 -0.330926 1.75648e-005 0.00254304 -0.999997
0.2253 0.0838098 -0.331586 0.999997 0.00254301 -1.81241e-005
-0.254707 0.0838098 -0.330926 1.72961e-005 -0.00254304 0.999997
-0.255365 0.0838098 -0.331586 -0.999997 -0.00254304 1.90253e-005
0.22596 0.0660075 -0.330926 1.75667e-005 -0.00254315 -0.999997
0.2253 0.0660075 -0.331586 0.999997 -0.00254312 -1.8126e-005
-0.254707 0.0660075 -0.330926 1.72979e-005 0.00254315 0.999997
-0.255365 0.0660075 -0.331586 -0.999997 0.00254315 1.90272e-005
0.22596 0.0482051 -0.330926 1.75666e-005 0.00254315 -0.999997
0.2253 0.0482051 -0.331586 0.999997 0.00254312 -1.8126e-005
-0.254707 0.0482051 -0.330926 1.72979e-005 -0.00254315 0.999997
-0.255365 0.0482051 -0.331586 -0.999997 -0.00254315 1.90272e-005
0.22596 0.0304027 -0.330926 1.75666e-005 0.00254315 -0.999997
0.2253 0.0304027 -0.331586 0.999997 0.00254312 -1.8126e-005
-0.254707 0.0304027 -0.330926 1.72979e-005 -0.00254315 0.999997
-0.255365 0.0304027 -0.331586 -0.999997 -0.00254315 1.90272e-005
0.22596 0.0126004 -0.330926 1.75666e-005 -0.00254315 -0.999997
0.2253 0.0126004 -0.331586 0.999997 -0.00254312 -1.8126e-005
-0.254707 0.0126004 -0.330926 1.72979e-005 0.00254315 0.999997
-0.255365 0.0126004 -0.331586 -0.999997 0.00254315 1.90271e-005
0.22596 -0.00520199 -0.330926 1.75667e-005 -0.00254315 -0.999997
0.2253 -0.00520199 -0.331586 0.999997 -0.00254312 -1.8126e-005
-0.254707 -0.00520199 -0.330926 1.72979e-005 0.00254315 0.999997
-0.255365 -0.00520199 -0.331586 -0.999997 0.00254315 1.90272e-005
0.22596 -0.0230044 -0.330926 1.75667e-005 0.00254315 -0.999997
0.2253 -0.0230044 -0.331586 0.999997 0.00254312 -1.8126e-005
-0.254707 -0.0230044 -0.330926 1.72979e-005 -0.00254315 0.999997
-0.255365 -0.0230044 -0.331586 -0.999997 -0.00254315 1.90272e-005
0.22596 -0.0408067 -0.330926 1.75666e-005 0.00254315 -0.999997
0.2253 -0.0408067 -0.331586 0.999997 0.00254312 -1.8126e-005
-0.254707 -0.0408067 -0.330926 1.72979e-005 -0.00254315 0.999997
-0.255365 -0.0408067 -0.331586 -0.999997 -0.00254315 1.90271e-005
0.22596 -0.0586091 -0.330926 0.987999 -0.00106369 -0.15446
0.2253 -0.0586091 -0.331586 0.993441 -0.00112327 0.114336
-0.254707 -0.0586091 -0.330926 1.72979e-005 0.00254315 0.999997
-0.255365 -0.0586091 -0.331586 -0.999997 0.00254315 1.90271e-005
0.22596 -0.0764115 -0.330926 0.977229 0.00397986 -0.21215
0.2253 -0.0764115 -0.331586 0.994473 0.00400686 0.104915
-0.254707 -0.0764115 -0.330926 1.7298e-005 0.00254315 0.999997
-0.255365 -0.0764115 -0.331586 -0.999997 -0.00254315 1.90272e-005
0.22603 -0.0942842 -0.330879 0.176836 0.00924909 -0.984197
0.225382 -0.0942138 -0.331586 -0.196001 -0.00187271 -0.980602
-0.254707 -0.0942138 -0.330926 -0.0686556 0.00117799 0.99764
-0.255365 -0.0942138 -0.331586 -0.459493 0.0016539 0.88818
0.226381 -0.112667 -0.330566 0.772699 -0.00959173 -0.6347
0.225795 -0.112229 -0.331727 0.973286 0.00830054 -0.229445
-0.254707 -0.112016 -0.330926 -0.0323896 -0.00544736 0.99946
-0.255365 -0.112016 -0.331586 -0.651088 0.00261057 0.758998
0.227167 -0.133658 -0.329373 0.99801 0.0337034 -0.0532972
0.225908 -0.130752 -0.331992 -0.760729 0.00920208 -0.649004
-0.254942 -0.12989 -0.331044 -0.0682197 -0.0129345 0.997586
-0.255543 -0.130031 -0.331892 -0.967656 0.0183198 0.251608
0.225007 -0.149331 -0.33246 0.938076 -0.0499496 -0.342811
-0.255545 -0.147805 -0.331435 -0.741349 -0.0113224 0.671024
-0.256147 -0.148275 -0.332857 -0.934134 0.0259929 0.355975
0.232844 -0.167698 -0.326811 0.401382 0.086559 -0.911811
0.222778 -0.166136 -0.33286 0.579461 0.193705 -0.791646
-0.255964 -0.166035 -0.331908 -0.730927 -0.0253714 0.681984
-0.257888 -0.165541 -0.334364 -0.965738 0.0151762 0.259076
0.243152 -0.192407 -0.332494 0.920745 0.272482 -0.279252
0.236251 -0.186104 -0.326551 -0.227338 -0.0340579 -0.97322
0.221429 -0.182426 -0.333593 0.943652 0.0830843 -0.320341
-0.255704 -0.184403 -0.332233 -0.968254 0.00697165 0.24987
-0.259325 -0.182689 -0.335749 -0.929518 -0.106255 0.353136
0.238689 -0.203501 -0.325882 -0.243954 -0.274264 -0.930197
0.221497 -0.200364 -0.334576 0.841292 0.184648 -0.508068
-0.255117 -0.201905 -0.332433 -0.965152 0.00718278 0.26159
-0.259655 -0.200774 -0.336475 -0.993682 -0.0305049 0.108011
0.239822 -0.219986 -0.325882 -0.320812 -0.0840767 -0.943404
0.221355 -0.21869 -0.334883 0.971964 -0.0631024 -0.226506
-0.254902 -0.21917 -0.332731 -0.999693 0.0221411 -0.0111351
-0.260179 -0.21893 -0.336738 -0.999039 0.0285125 -0.0332931
0.2404 -0.236832 -0.326608 -0.409285 0.0534309 -0.910841
0.221343 -0.236634 -0.334883 0.946758 -0.10609 -0.303963
-0.255429 -0.237161 -0.332232 -0.991588 0.0826522 -0.0996105
-0.261431 -0.237471 -0.336261 -0.989002 0.0879374 -0.118922
0.240465 -0.254436 -0.326971 -0.338326 -0.105333 -0.935115
0.221343 -0.254436 -0.334883 0.93568 -0.118095 -0.332499
-0.255898 -0.254347 -0.329795 -0.958152 0.167016 -0.232486
-0.264239 -0.257891 -0.333863 -0.945675 0.262133 -0.192317
0.240465 -0.272239 -0.326971 -0.338978 0.121091 -0.932969
0.221343 -0.272239 -0.334883 0.933019 0.121043 -0.338858
-0.256648 -0.271241 -0.327914 -0.667229 0.222461 -0.710856
0.240465 -0.290041 -0.326971 -0.338978 -0.121091 -0.932969
0.221343 -0.290041 -0.334883 0.933019 -0.121043 -0.338858
-0.257697 -0.289377 -0.327453 -0.176356 -0.00292095 -0.984322
-0.275227 -0.291537 -0.339529 -0.951354 0.249636 0.180576
0.240465 -0.307843 -0.326971 -0.414483 0.120362 -0.902062
0.221343 -0.307843 -0.334883 0.936779 -0.111312 -0.331745
-0.258003 -0.307703 -0.327064 -0.386166 -0.105751 -0.916347
-0.276581 -0.307646 -0.336268 -0.926513 0.00423766 0.37624
0.241026 -0.325448 -0.327169 -0.424281 -0.00769441 -0.905498
0.22164 -0.325618 -0.334407 0.904415 0.0463093 -0.424132
-0.257528 -0.325618 -0.327267 -0.402287 0.00490586 -0.9155
-0.276996 -0.325575 -0.335142 -0.928875 0.122148 0.349673
0.242415 -0.342234 -0.328086 -0.501398 0.244617 -0.829917
0.222754 -0.342544 -0.333467 0.922229 0.148655 -0.356924
-0.256251 -0.342544 -0.328043 -0.411919 0.0301089 -0.910723
-0.276593 -0.344014 -0.335074 -0.914153 -0.15178 0.375883
0.244639 -0.356057 -0.33114 -0.64112 0.295228 -0.708382
0.23528 -0.358329 -0.329503 0.0899517 0.425779 -0.900345
-0.254423 -0.356227 -0.330682 -0.605263 0.230464 -0.761934
-0.264566 -0.359754 -0.328869 0.180217 0.250993 -0.951065
-0.275369 -0.363879 -0.335569 0.597075 0.189945 -0.779373
0.241628 -0.373536 -0.335308 0.023006 0.382973 -0.923473
0.230623 -0.373686 -0.339055 0.293828 0.44764 -0.844561
-0.259492 -0.374392 -0.333801 -0.377378 0.285301 -0.881016
-0.270966 -0.374968 -0.333517 -0.200871 0.338778 -0.919174
-0.270435 -0.393583 -0.339957 -0.335771 0.284444 -0.89797
-0.268983 -0.414495 -0.343244 -0.228916 0.112666 -0.966904
-0.270048 -0.433078 -0.344958 -0.655803 0.111271 -0.746687
0.24997 -0.471107 -0.345078 -0.127737 -0.145366 -0.981097
0.24218 -0.473173 -0.346579 0.541175 0.0157349 -0.840763
0.244677 -0.487153 -0.345255 0.586243 -0.132697 -0.799194
0.24759 -0.503671 -0.345362 0.374208 0.157537 -0.913866
-0.28024 -0.500323 -0.346252 0.353578 -0.286927 0.890312
0.258461 0.857752 -0.362403 -0.182351 -0.440416 -0.87908
-0.275819 0.859936 -0.363596 0.211296 -0.498287 -0.840871
-0.291389 0.859658 -0.367992 0.525189 -0.475247 -0.705916
0.2688 0.849756 -0.363182 -0.82485 -0.0637958 -0.561741
0.255324 0.844257 -0.356757 -0.287302 -0.169387 -0.942744
0.242561 0.84698 -0.358988 0.0592873 -0.306938 -0.949881
-0.263403 0.847793 -0.358684 -0.0308971 -0.291569 -0.956051
-0.277675 0.844412 -0.356949 0.33859 -0.183328 -0.922902
-0.288304 0.847816 -0.361844 0.41129 -0.256931 -0.874544
0.242518 0.830586 -0.355395 -0.129576 -0.0894322 -0.987528
0.22569 0.83122 -0.35909 0.186956 -0.187329 -0.964342
-0.272909 0.831305 -0.355576 0.237702 -0.0700551 -0.968808
-0.285943 0.832681 -0.359593 0.605463 0.0307762 -0.795278
0.242893 0.813583 -0.354897 -0.234943 -0.0047522 -0.971998
0.22586 0.813612 -0.357135 0.115553 -0.0617324 -0.991381
-0.269415 0.814935 -0.355567 0.310252 0.0993706 -0.945447
-0.282105 0.815623 -0.360286 0.651469 0.174011 -0.73845
0.242516 0.795375 -0.355317 -0.339786 0.0345474 -0.939868
0.22596 0.795838 -0.356687 0.0577699 -0.0219138 -0.998089
-0.266253 0.800808 -0.356056 0.287229 0.12831 -0.949229
0.24144 0.77698 -0.355412 -0.35428 0.0558169 -0.933472
0.225761 0.777866 -0.356669 -0.0105829 0.0011776 -0.999943
-0.27058 0.781884 -0.360356 0.620631 0.112891 -0.775934
0.240701 0.759753 -0.355936 -0.426634 0.099863 -0.898894
0.225399 0.760035 -0.356802 -0.0518885 0.0293797 -0.998221
-0.269022 0.760953 -0.361633 0.591168 0.060124 -0.804304
0.22529 0.742472 -0.357493 -0.118972 0.100384 -0.98781
-0.268558 0.742769 -0.36153 0.592957 0.0317568 -0.804608
0.22571 0.725037 -0.358411 -0.176826 0.0941752 -0.979726
-0.268096 0.725645 -0.360984 0.673967 0.0540476 -0.736782
0.226798 0.708068 -0.359323 -0.147159 0.153883 -0.977069
-0.267324 0.708252 -0.361468 0.743853 0.101422 -0.660603
0.228228 0.691724 -0.361022 -0.0547893 0.361457 -0.930777
-0.266491 0.689843 -0.36218 0.688958 0.332835 -0.643862
-0.266344 0.671531 -0.362578 -0.195321 -0.0094326 -0.980694
-0.265839 0.471529 -0.359515 -0.241666 -0.0945799 -0.965739
-0.272482 0.468673 -0.359252 0.244898 -0.181174 -0.952471
0.247333 0.459793 -0.359022 0.851652 -0.224651 -0.473519
0.242114 0.450006 -0.35424 0.973382 -0.140222 0.181288
0.236995 0.453717 -0.360999 0.969533 -0.0913683 -0.227281
-0.270036 0.452536 -0.352809 0.0587992 -0.294517 -0.953836
-0.27682 0.45462 -0.360984 0.984955 -0.127114 -0.11707
0.233222 0.434358 -0.353779 0.967675 -0.236704 0.0870462
-0.25332 0.438479 -0.352894 -0.751276 -0.325411 -0.574188
-0.277785 0.43805 -0.356705 0.950937 -0.237352 -0.19845
0.241169 0.422396 -0.344854 0.772204 0.104511 0.626721
-0.258958 0.420923 -0.344608 -0.337672 -0.27161 -0.901224
-0.27818 0.421139 -0.353737 0.913763 -0.247272 -0.322327
0.241857 0.404189 -0.342096 0.347888 0.348704 0.870276
0.221049 0.399382 -0.353868 0.904772 -0.424312 -0.0366954
-0.254612 0.400478 -0.341224 -0.284733 -0.45419 -0.844179
-0.277696 0.403558 -0.351118 0.903696 -0.0861173 -0.419426
0.24543 0.385703 -0.338149 0.488236 0.651229 0.58097
-0.277882 0.383026 -0.346614 -0.998149 0.0590522 -0.0145704
-0.241276 0.368115 -0.337329 -0.736931 -0.600946 -0.309511
0.254856 0.350791 -0.332168 0.922603 0.265595 0.279756
0.201701 0.34721 -0.326296 -0.516724 0.855699 0.0278504
0.188062 0.337759 -0.330198 -0.423962 0.861881 -0.27824
0.167731 0.330003 -0.33376 -0.163003 0.918038 -0.361437
0.148799 0.330812 -0.327734 -0.0171445 0.973844 -0.226568
0.133858 0.330742 -0.330192 0.0442437 0.979064 -0.198687
0.116606 0.331645 -0.3304 0.0562528 0.987641 -0.146289
0.0998677 0.332316 -0.33064 0.0480764 0.993277 -0.10531
0.0828431 0.332669 -0.331219 0.0280555 0.997086 -0.0709465
0.0653744 0.332964 -0.331389 0.0143856 0.998732 -0.0482361
0.0478366 0.333047 -0.331487 0.00615715 0.99914 -0.0410073
0.0301325 0.333047 -0.331586 0.00318057 0.999462 -0.032652
0.0123301 0.333047 -0.331586 0.00474576 0.999791 -0.0198968
-0.00547223 0.333047 -0.331586 0.00190777 0.999908 -0.0134359
-0.0232746 0.333047 -0.331586 -0.000229421 0.999944 -0.0106219
-0.041077 0.333047 -0.331586 -0.00422582 0.999829 -0.0180043
-0.0588793 0.333047 -0.331586 -0.00582869 0.999605 -0.0274917
-0.0766817 0.333047 -0.331586 -0.00467766 0.999399 -0.0343539
-0.0944841 0.333047 -0.331586 -0.00543104 0.999149 -0.0408959
-0.112288 0.333047 -0.331586 -0.0148424 0.998345 -0.0555642
-0.13016 0.332905 -0.331657 -0.0340978 0.99518 -0.0919439
-0.148273 0.332283 -0.33177 -0.0429968 0.990025 -0.134174
-0.166745 0.331341 -0.332194 -0.031526 0.98003 -0.196337
-0.185994 0.331176 -0.332703 0.0795281 0.967586 -0.239694
-0.206858 0.33447 -0.33498 0.304942 0.918504 -0.251716
-0.275626 0.353591 -0.331654 -0.865842 0.308461 0.393916
0.257558 0.333327 -0.331111 0.990811 0.0755581 -0.11218
-0.274254 0.335583 -0.334171 -0.996529 -0.00344478 -0.0831801
0.257668 0.315722 -0.330783 0.958924 -0.00384308 -0.283638
-0.273503 0.314151 -0.332009 -0.929122 0.00971981 -0.369646
0.25549 0.29775 -0.330167 0.894157 -0.0970478 -0.43711
-0.274495 0.296596 -0.330322 -0.874144 -0.0132966 -0.485484
0.251734 0.279707 -0.329621 0.825027 -0.171977 -0.538288
-0.275741 0.28023 -0.327977 -0.848939 -0.0366228 -0.52722
0.248214 0.261917 -0.329196 0.808928 -0.207884 -0.549927
0.0722117 0.251857 -0.327939 -0.111896 -0.933499 0.340673
0.0572122 0.252381 -0.330443 -0.0590883 -0.939991 0.336043
0.039439 0.25257 -0.331346 -0.0236102 -0.940039 0.340248
0.0215614 0.252602 -0.331586 -0.00222386 -0.940749 0.339096
0.00375899 0.252602 -0.331586 0.00228391 -0.940702 0.339226
-0.0140434 0.252602 -0.331586 0.00687614 -0.940555 0.339572
-0.0319404 0.252555 -0.331515 0.0157001 -0.938859 0.343944
-0.0502657 0.252402 -0.330837 0.0385085 -0.938074 0.344287
-0.0710384 0.251953 -0.327808 0.0821698 -0.938841 0.334403
-0.27707 0.265721 -0.324538 -0.844119 -0.0924876 -0.528119
0.243445 0.244606 -0.329218 0.805632 -0.251361 -0.536446
0.121084 0.240299 -0.328424 -0.211292 -0.921891 0.324765
0.101469 0.244031 -0.331459 -0.190227 -0.911046 0.365799
0.0825653 0.247642 -0.33367 -0.140395 -0.921298 0.362627
-0.0923328 0.248694 -0.330328 0.128811 -0.932776 0.336656
-0.112381 0.243819 -0.331515 0.153155 -0.93645 0.315602
-0.132594 0.238509 -0.332701 0.174914 -0.938433 0.297907
-0.270031 0.243756 -0.328413 -0.792095 -0.183386 -0.582199
0.23844 0.227869 -0.330107 0.809949 -0.325933 -0.487597
0.173062 0.22183 -0.331822 -0.406692 -0.91324 -0.0243558
0.152032 0.231602 -0.328538 -0.282724 -0.939445 0.193676
0.132394 0.235398 -0.333562 -0.213714 -0.94755 0.237645
-0.153777 0.234191 -0.335324 0.160431 -0.960955 0.225448
-0.174492 0.230509 -0.333592 0.183458 -0.9767 0.111356
-0.190121 0.226737 -0.33602 0.220338 -0.972238 -0.0787696
-0.205115 0.221256 -0.331617 0.359973 -0.92242 -0.139859
-0.263679 0.222175 -0.332472 -0.831766 -0.226565 -0.506788
0.233577 0.211437 -0.330735 0.781442 -0.457219 -0.424616
0.191771 0.210112 -0.333306 -0.38968 -0.872861 -0.293708
-0.222429 0.210245 -0.328326 0.501488 -0.84487 -0.186292
-0.263552 0.207863 -0.329791 -0.733476 -0.464292 -0.496432
0.229728 0.196856 -0.33235 0.858579 -0.296047 -0.418567
0.205289 0.196631 -0.334845 -0.562275 -0.747404 -0.353884
-0.235299 0.197873 -0.324654 0.398826 -0.913181 -0.0838955
-0.261522 0.191646 -0.328712 -0.731953 -0.170058 -0.659791
0.227247 0.178174 -0.329948 0.909427 -0.0135803 -0.415642
-0.247608 0.179295 -0.32788 0.188294 0.0636752 -0.980046
0.226431 0.156048 -0.33187 0.628675 -0.00378693 -0.777659
-0.252758 0.156703 -0.33127 -0.721749 0.00587222 -0.692131
0.226548 0.137359 -0.331751 0.521253 0.00836476 -0.853361
-0.253871 0.137429 -0.331609 -0.892445 0.00251526 -0.45115
0.226619 0.119416 -0.331586 0.987994 -0.00163655 -0.154486
-0.254046 0.119416 -0.331586 -0.103576 0.00112218 0.994621
0.226619 0.101612 -0.331586 0.994644 -0.00196106 -0.103344
-0.254046 0.101612 -0.331586 -0.222929 0.00190262 0.974833
0.226619 0.0838098 -0.331586 0.999997 -0.00254301 1.89767e-005
-0.254046 0.0838098 -0.331586 -0.999997 0.00254304 -1.81834e-005
0.226619 0.0660075 -0.331586 0.999997 0.00254312 1.89786e-005
-0.254046 0.0660075 -0.331586 -0.999997 -0.00254315 -1.81853e-005
0.226619 0.0482051 -0.331586 0.999997 -0.00254312 1.89786e-005
-0.254046 0.0482051 -0.331586 -0.999997 0.00254315 -1.81853e-005
0.226619 0.0304027 -0.331586 0.999997 -0.00254312 1.89786e-005
-0.254046 0.0304027 -0.331586 -0.999997 0.00254315 -1.81853e-005
0.226619 0.0126004 -0.331586 0.999997 0.00254312 1.89786e-005
-0.254046 0.0126004 -0.331586 -0.999997 -0.00254315 -1.81853e-005
0.226619 -0.00520199 -0.331586 0.999997 0.00254312 1.89786e-005
-0.254046 -0.00520199 -0.331586 -0.999997 -0.00254315 -1.81853e-005
0.226619 -0.0230044 -0.331586 0.999997 -0.00254312 1.89786e-005
-0.254046 -0.0230044 -0.331586 -0.999997 0.00254315 -1.81853e-005
0.226619 -0.0408067 -0.331586 0.999997 -0.00254312 1.89786e-005
-0.254046 -0.0408067 -0.331586 -0.999997 0.00254315 -1.81853e-005
0.226619 -0.0586091 -0.331586 0.972491 -0.00112357 0.232938
-0.254046 -0.0586091 -0.331586 -0.999997 -0.00254315 -1.81853e-005
0.226619 -0.0764115 -0.331586 0.812335 0.00320786 0.583183
-0.254046 -0.0764115 -0.331586 -0.999997 0.00254315 -1.81853e-005
0.226843 -0.0943558 -0.331492 0.469446 0.0175815 -0.882786
-0.254046 -0.0942138 -0.331586 -0.989078 -0.00172444 -0.147385
0.227476 -0.112737 -0.331049 0.782369 -0.00919138 -0.622747
-0.254046 -0.112016 -0.331586 0.183014 -0.00767228 0.98308
0.229351 -0.13119 -0.330618 -0.900334 -0.0712053 -0.429335
-0.254083 -0.12989 -0.331657 0.257118 -0.0194148 0.966185
0.232716 -0.151561 -0.332 0.281849 0.0104384 -0.959402
-0.254065 -0.148402 -0.332073 -0.696283 -0.0163727 0.717581
0.238357 -0.173804 -0.332782 0.449993 0.0708658 -0.890216
-0.252991 -0.169746 -0.333611 -0.741019 -0.0707219 0.66775
-0.251326 -0.188397 -0.332685 -0.973278 -0.0321041 0.227376
0.246205 -0.207081 -0.330241 0.897772 0.179403 0.402269
-0.24986 -0.202474 -0.334546 -0.974441 -0.00125963 0.224642
0.247953 -0.220183 -0.332706 0.87485 0.0455621 0.482246
-0.24929 -0.219363 -0.335652 -0.999169 0.0281609 -0.0294707
0.248443 -0.236832 -0.334323 0.905712 -0.0548171 0.420335
-0.249347 -0.236775 -0.335697 -0.996544 0.0814384 -0.0163543
0.248378 -0.254436 -0.334883 0.901099 0.108296 0.419872
-0.249625 -0.254309 -0.335137 -0.927125 0.0354953 -0.373068
0.248378 -0.272239 -0.334883 0.933005 -0.121052 0.338893
-0.249936 -0.272239 -0.334741 -0.909792 -0.0158497 -0.414762
-0.270577 -0.276324 -0.33313 -0.94021 0.305043 -0.151508
0.248378 -0.290041 -0.334883 0.933005 0.121052 0.338893
-0.249964 -0.290239 -0.334746 -0.845045 -0.202692 -0.494787
0.248378 -0.307843 -0.334883 0.935302 -0.107541 0.337112
-0.249991 -0.307942 -0.33485 -0.874814 -0.0759794 -0.478464
0.248741 -0.325448 -0.335311 0.950556 -0.0947336 0.29575
-0.249728 -0.325448 -0.335311 -0.89117 -0.108539 -0.440494
0.249311 -0.342502 -0.336303 0.966555 -0.127899 0.222292
-0.249158 -0.342502 -0.336303 -0.916608 -0.0985187 -0.387459
0.249048 -0.359382 -0.338953 0.95975 -0.216341 0.179097
0.226091 -0.355952 -0.332403 0.154113 0.424091 -0.89241
-0.249902 -0.35948 -0.338697 -0.944085 0.226719 -0.239378
0.248082 -0.37595 -0.343161 0.816339 0.0971775 -0.569339
-0.251621 -0.376779 -0.342877 -0.720439 0.270932 -0.638407
-0.27616 -0.382107 -0.340242 -0.792149 0.308249 -0.526767
0.244024 -0.390178 -0.341424 0.741897 0.027531 -0.669948
0.238217 -0.393515 -0.342167 0.463185 0.0460872 -0.885063
-0.259627 -0.395166 -0.340455 -0.369915 0.164858 -0.914322
-0.274853 -0.397086 -0.348245 -0.372699 0.168756 -0.912478
0.2419 -0.410355 -0.346292 0.969738 0.020363 -0.243298
0.239131 -0.413735 -0.349182 0.353417 0.0650039 -0.933205
-0.260425 -0.415582 -0.34496 -0.0303995 0.0445263 -0.998546
-0.273238 -0.414852 -0.348997 -0.0841601 0.114019 -0.989908
0.242632 -0.432907 -0.348702 0.892886 0.0988943 -0.439289
0.239929 -0.431938 -0.35139 0.952438 0.0806924 -0.293853
-0.264627 -0.434762 -0.345667 0.445125 -0.0251105 -0.895116
-0.274574 -0.433181 -0.350168 -0.259203 0.136835 -0.956081
0.244599 -0.455005 -0.347934 0.994845 0.0552182 0.085053
0.239196 -0.45031 -0.353114 0.989465 0.0744199 0.124179
-0.27164 -0.45015 -0.346796 0.966082 -0.169287 -0.195006
-0.27716 -0.449981 -0.351079 -0.00516504 0.175963 -0.984383
0.238643 -0.469044 -0.353528 0.979006 0.0305252 -0.201534
-0.272895 -0.467839 -0.348202 0.994721 -0.102553 -0.00354536
-0.27897 -0.467639 -0.352016 0.996298 -0.0751769 -0.0416941
0.262458 -0.490547 -0.349111 -0.685761 -0.283983 -0.670138
0.254759 -0.487578 -0.34441 -0.189012 -0.209013 -0.959473
0.238126 -0.486673 -0.353142 0.980212 -0.117762 -0.159114
-0.273193 -0.485478 -0.347085 0.193646 0.0385307 0.980315
-0.281438 -0.488848 -0.351341 0.894009 -0.251844 0.370571
0.258686 -0.503671 -0.345095 -0.348281 -0.0452003 -0.9363
0.239541 -0.503741 -0.352753 0.943303 0.161985 -0.289725
-0.272894 -0.501712 -0.346406 0.569591 -0.231345 0.788699
0.261841 -0.516793 -0.348495 -0.667852 0.287032 -0.686722
0.252479 -0.519862 -0.347515 0.0700074 0.438771 -0.895868
-0.27206 -0.515772 -0.348929 0.515528 -0.374054 0.770918
-0.282329 -0.517587 -0.348115 0.503061 -0.384616 0.773951
-0.291585 -0.525358 -0.357371 0.775166 -0.384157 0.501538
0.259001 -0.534371 -0.35287 0.0150089 0.327652 -0.944679
0.24773 -0.537146 -0.355861 0.202061 0.257359 -0.944954
-0.277441 -0.534441 -0.352317 0.515395 -0.450541 0.728959
-0.288592 -0.534991 -0.352757 0.0200169 -0.288719 0.957205
-0.288956 -0.554072 -0.358254 0.100902 -0.0647127 0.99279
-0.288582 -0.575066 -0.360838 -0.378119 -0.0790821 0.922373
-0.289506 -0.592795 -0.362611 -0.772743 0.0759372 0.63016
0.268187 -0.613438 -0.363137 0.769807 0.246342 0.588823
0.26022 -0.61569 -0.364432 0.763872 0.224696 -0.604988
0.263648 -0.629686 -0.363314 -0.398938 0.124378 0.908503
0.273478 0.868507 -0.374356 -0.906356 -0.415502 0.0766608
0.260893 0.870652 -0.372269 0.332852 0.842175 0.424206
0.244689 0.874315 -0.377823 0.0239926 -0.845838 -0.532899
-0.249675 0.873978 -0.375944 -0.11156 -0.773434 -0.623983
-0.265328 0.873548 -0.374362 0.0532384 -0.87334 -0.484193
-0.285637 0.871164 -0.376034 0.430621 -0.813595 -0.390677
0.270036 0.863559 -0.366911 -0.777992 -0.4452 -0.443312
0.243404 0.862788 -0.366436 0.0983052 -0.628647 -0.771452
0.224135 0.866186 -0.374582 0.170409 -0.670021 -0.722518
0.202044 0.863678 -0.37774 0.210299 -0.656594 -0.724333
0.185403 0.861045 -0.380436 0.224647 -0.58433 -0.779802
-0.222716 0.861499 -0.375994 -0.240029 -0.57265 -0.783874
-0.24069 0.866891 -0.372519 -0.168658 -0.651617 -0.739561
-0.255978 0.863748 -0.366098 -0.0895984 -0.598793 -0.795877
-0.301958 0.863571 -0.378149 0.214575 -0.244822 -0.945526
0.225342 0.848722 -0.363928 0.194224 -0.382642 -0.903251
0.206616 0.848954 -0.36927 0.247307 -0.397553 -0.883624
0.188235 0.84819 -0.373331 0.266287 -0.384598 -0.883841
0.170955 0.848469 -0.379145 0.249976 -0.390061 -0.886208
-0.206885 0.84499 -0.373522 -0.249976 -0.309402 -0.917487
-0.225639 0.844299 -0.367668 -0.26166 -0.283676 -0.92253
-0.242614 0.850575 -0.364373 -0.224387 -0.365145 -0.903504
-0.297153 0.849188 -0.371238 0.867394 0.0129323 -0.497454
0.257833 0.831455 -0.357524 -0.511065 -0.00625678 -0.859519
0.20785 0.831655 -0.364505 0.25758 -0.191611 -0.947068
0.189855 0.831485 -0.369589 0.276636 -0.178562 -0.944239
0.172118 0.831385 -0.37492 0.27084 -0.180836 -0.945486
-0.192025 0.831291 -0.374293 -0.24031 -0.188094 -0.952298
-0.207889 0.826647 -0.369268 -0.250132 -0.14463 -0.957349
-0.221828 0.829436 -0.366237 -0.255525 -0.154648 -0.954354
-0.238952 0.831099 -0.361555 -0.231017 -0.143557 -0.962301
-0.256555 0.831848 -0.357142 -0.0584356 -0.107927 -0.99244
-0.293754 0.836774 -0.366362 0.895385 0.101156 -0.433651
0.257408 0.813963 -0.359373 -0.755573 0.163785 -0.634258
0.208156 0.813711 -0.362244 0.267482 -0.0859986 -0.959718
0.190354 0.813711 -0.368014 0.294238 -0.0793024 -0.952436
0.172551 0.813711 -0.373536 0.27763 -0.0656027 -0.958445
-0.203668 0.812976 -0.369253 -0.242232 -0.0710983 -0.96761
-0.220509 0.812665 -0.365391 -0.239908 -0.0595751 -0.968966
-0.237314 0.813583 -0.360902 -0.212561 -0.0452014 -0.976102
-0.25385 0.814699 -0.356932 -0.0387008 0.0113375 -0.999187
-0.289949 0.821213 -0.369066 0.939024 0.272953 -0.209119
0.255709 0.793628 -0.361314 -0.888973 0.214569 -0.404583
0.208156 0.795908 -0.361503 0.263397 -0.029936 -0.964223
0.190354 0.795908 -0.367437 0.298022 -0.0276978 -0.954157
0.172551 0.795908 -0.373206 0.285177 -0.0216377 -0.958231
-0.201798 0.79588 -0.369191 -0.24072 -0.024011 -0.970297
-0.219465 0.79571 -0.365211 -0.224103 -0.0139851 -0.974465
-0.237045 0.796049 -0.361043 -0.179462 0.00601413 -0.983747
-0.253788 0.797265 -0.357803 0.0954897 0.0695967 -0.992994
-0.277474 0.79799 -0.360775 0.582269 0.163628 -0.796359
0.250944 0.774495 -0.358669 -0.461684 0.114647 -0.879605
0.208156 0.778106 -0.361255 0.258613 -0.00567041 -0.965964
0.190354 0.778106 -0.36719 0.301356 -0.00806231 -0.953478
0.172551 0.778106 -0.373123 0.254248 -0.0112658 -0.967074
-0.201299 0.778106 -0.369168 -0.243134 0.00483104 -0.969981
-0.219102 0.778106 -0.365211 -0.218186 0.00219809 -0.975905
-0.236975 0.778176 -0.361232 -0.148839 0.0167886 -0.988719
-0.254334 0.778854 -0.35883 0.168536 0.0552613 -0.984145
-0.280706 0.779317 -0.370638 0.967464 0.177783 -0.180019
0.251133 0.761402 -0.362303 -0.689468 0.130404 -0.71248
0.208156 0.760303 -0.361255 0.245888 0.0137511 -0.969201
0.190354 0.760303 -0.36719 0.301072 0.00550196 -0.953586
0.172551 0.760303 -0.373123 0.25737 0.0102027 -0.966259
-0.201299 0.760303 -0.369415 -0.251396 0.0273132 -0.967499
-0.219102 0.760303 -0.365211 -0.221257 0.0143954 -0.975109
-0.236904 0.760303 -0.361255 -0.130002 0.00582197 -0.991497
-0.254188 0.760444 -0.35923 0.204117 0.0083975 -0.978911
-0.278077 0.761024 -0.370275 0.956533 0.100523 -0.273751
0.240423 0.743122 -0.358624 -0.630021 0.13288 -0.765125
0.208156 0.742501 -0.361338 0.227289 0.0353669 -0.973185
0.190354 0.742501 -0.36719 0.300303 0.03075 -0.953348
0.172551 0.742501 -0.373123 0.260239 0.0399501 -0.964717
-0.201299 0.742501 -0.369909 -0.268086 0.0643213 -0.961245
-0.219102 0.742501 -0.365458 -0.23384 0.035811 -0.971615
-0.236904 0.742501 -0.361255 -0.13201 0.00916591 -0.991206
-0.254015 0.742599 -0.359179 0.211517 -0.00120313 -0.977374
-0.277316 0.742741 -0.36993 0.951454 0.0435239 -0.304697
0.240188 0.725447 -0.361002 -0.572216 0.094384 -0.814654
0.20875 0.724797 -0.361799 0.205909 0.0736578 -0.975795
0.191014 0.724699 -0.36752 0.272464 0.103405 -0.956593
0.173212 0.724699 -0.373536 0.357866 0.108608 -0.927436
-0.219031 0.724627 -0.366094 -0.268245 0.109976 -0.957053
-0.236904 0.724699 -0.361338 -0.142456 0.0436097 -0.98884
-0.253863 0.724967 -0.35915 0.197253 0.021306 -0.980121
-0.276668 0.725645 -0.368731 0.919921 0.0821288 -0.383407
0.240303 0.707475 -0.361823 -0.541755 0.108722 -0.833475
0.210714 0.708139 -0.362372 0.195389 0.275729 -0.941168
0.19335 0.707715 -0.368401 0.289873 0.378559 -0.879015
0.17565 0.707715 -0.375088 0.348926 0.415884 -0.839816
-0.218686 0.706766 -0.368534 -0.233119 0.505063 -0.831003
-0.236834 0.706754 -0.362339 -0.155954 0.330987 -0.930659
-0.253615 0.707137 -0.359403 0.205568 0.0944135 -0.974078
-0.275256 0.711711 -0.366854 0.756725 0.127531 -0.641173
0.240918 0.690516 -0.362834 -0.6953 0.137454 -0.705453
0.214976 0.695071 -0.362807 0.187238 0.375078 -0.907887
-0.2374 0.688967 -0.365759 -0.255953 0.549772 -0.795134
-0.253588 0.689093 -0.360597 0.0890512 0.440884 -0.893136
-0.272885 0.692997 -0.370898 0.876027 0.182683 -0.446323
0.242346 0.676428 -0.364279 -0.248825 0.0933682 -0.964038
0.232427 0.675485 -0.363316 0.145016 0.285635 -0.947303
-0.254861 0.671375 -0.363835 -0.425721 0.127325 -0.895851
-0.271419 0.672469 -0.368889 -0.488531 -0.00455148 -0.872535
0.239515 0.658744 -0.366111 0.150044 0.0151834 -0.988563
0.227762 0.663239 -0.370553 0.478703 0.227347 -0.848031
-0.267173 0.65388 -0.364364 -0.441226 0.0477717 -0.896124
-0.271708 0.65463 -0.367835 -0.642777 0.0792936 -0.761938
0.242432 0.637065 -0.367124 0.627258 -0.0502539 -0.777188
0.238431 0.640432 -0.369523 0.54917 0.0135745 -0.835601
-0.268664 0.636173 -0.366157 -0.564279 0.0762349 -0.822057
-0.272024 0.637042 -0.367527 -0.197115 0.0188472 -0.980199
0.243597 0.618096 -0.366956 0.563541 -0.0105299 -0.826021
0.242218 0.618722 -0.36768 0.408361 -0.046359 -0.911643
-0.270389 0.618149 -0.366749 -0.936025 0.0329346 -0.350388
-0.272269 0.618632 -0.367436 -0.978517 0.04698 -0.200741
0.243762 0.600081 -0.366614 0.997852 0.0217473 -0.0617913
0.243056 0.600151 -0.367261 0.9506 0.00794053 -0.310318
-0.271626 0.600223 -0.366791 -0.255927 0.00370642 -0.966689
-0.272697 0.600223 -0.367285 -0.0754143 -0.0124908 -0.997074
0.243762 0.582278 -0.366531 0.995267 0.00414971 0.0970873
0.243102 0.582278 -0.367191 0.911882 -0.00280864 -0.410442
-0.272274 0.582349 -0.366578 -0.0465935 -0.00380776 -0.998907
-0.273085 0.582278 -0.367191 0.188739 -0.0115845 -0.981959
0.243762 0.564476 -0.366531 -0.114795 0.00112332 -0.993389
0.243102 0.564476 -0.367191 0.153664 0.00105882 -0.988123
-0.272509 0.564476 -0.366531 0.671545 -0.00329399 -0.740956
-0.273168 0.564476 -0.367191 -0.981372 0.00253212 0.192102
0.243762 0.546674 -0.366531 0.989489 -0.00208561 -0.144596
