ply
format ascii 1.0
element vertex 854
property float x
property float y
property float z
property float nx
property float ny
property float nz
end_header
0.330482 0.634338 0.200027 -0.907158 -0.353584 -0.228129
0.477281 0.609971 0.191073 0.771627 -0.604303 0.19852
0.339706 0.615121 0.197163 -0.812543 -0.543494 -0.210685
0.464807 0.597333 0.190979 0.628233 -0.759375 0.169329
0.363501 0.591118 0.201545 -0.509921 -0.849064 -0.138098
0.351095 0.601221 0.197725 -0.672504 -0.717825 -0.180183
0.446757 0.587174 0.194411 0.417122 -0.902082 0.110709
0.42904 0.581091 0.19575 0.211781 -0.976222 0.0462535
0.411507 0.57919 0.195791 0.00696189 -0.999956 0.00634807
0.394057 0.580896 0.196265 -0.184796 -0.982189 -0.0339965
0.377031 0.585826 0.198184 -0.363325 -0.927009 -0.093001
0.357982 0.0423216 0.195986 0.597174 0.802111 -0.00151469
0.341753 0.0488131 0.195986 0.296935 0.954896 0.00168814
0.324225 0.0514102 0.195986 0.129484 0.991581 -0.000722458
0.306697 0.0520601 0.195986 0.0330618 0.999453 -0.000601403
0.28917 0.0520601 0.195986 0.00485563 0.999988 1.01003e-008
0.271641 0.0520601 0.195986 6.81941e-018 1 3.25205e-017
0.254114 0.0520601 0.195986 3.04916e-017 1 -1.31634e-017
0.236586 0.0520601 0.195986 -6.81942e-018 1 3.2523e-017
0.219058 0.0520601 0.195986 5.44712e-018 1 -3.91339e-017
0.20153 0.0520601 0.195986 3.74943e-018 1 -1.86825e-017
0.184003 0.0520601 0.195986 -1.3723e-018 1 7.16737e-017
0.166474 0.0520601 0.195986 6.81941e-018 1 3.25133e-017
0.148947 0.0520601 0.195986 6.09846e-017 1 -1.96029e-017
0.131419 0.0520601 0.195986 0 1 0
0.11389 0.0520601 0.195986 -5.27972e-020 1 -5.45484e-017
0.096363 0.0520601 0.195986 3.02372e-017 1 -1.96034e-017
0.0788355 0.0520601 0.195986 6.81941e-018 1 -3.25133e-017
0.0613069 0.0520601 0.195986 -9.02366e-018 1 1.50938e-017
0.0437794 0.0520601 0.195986 1.53745e-017 1 -2.2366e-017
0.0262519 0.0520601 0.195986 0 1 0
0.00872331 0.0520601 0.195986 -0 1 -0
-0.00880416 0.0520601 0.195986 -9.1316e-018 1 -5.07761e-017
-0.0263316 0.0520601 0.195986 1.07136e-017 1 -5.07787e-017
-0.0438591 0.0520601 0.195986 5.56142e-018 1 -1.30602e-017
-0.0613877 0.0520601 0.195986 -0 1 -0
-0.0789152 0.0520601 0.195986 0 1 0
-0.0964427 0.0520601 0.195986 5.27972e-020 1 -5.45521e-017
-0.113971 0.0520601 0.195986 -6.76661e-018 1 2.20448e-017
-0.131499 0.0520601 0.195986 0 1 0
-0.149026 0.0520601 0.195986 -6.76661e-018 1 -2.20448e-017
-0.166555 0.0520601 0.195986 1.3723e-018 1 7.16737e-017
-0.184082 0.0520601 0.195986 2.67433e-017 1 -1.68411e-017
-0.20161 0.0520601 0.195986 1.37229e-018 1 -7.16544e-017
-0.219138 0.0520601 0.195986 1.37229e-018 1 7.16496e-017
-0.236666 0.0520601 0.195986 -3.04922e-017 1 -2.32862e-017
-0.254193 0.0520601 0.195986 1.37231e-018 1 -7.1693e-017
-0.271722 0.0520601 0.195986 -6.81941e-018 1 -3.25037e-017
-0.289249 0.0520601 0.195986 1.57198e-031 1 1.01505e-016
-0.306777 0.0520601 0.195986 1.37231e-018 1 -7.16882e-017
-0.324306 0.0520601 0.195986 -0.00485563 0.999988 1.01003e-008
-0.341833 0.0520601 0.195986 -0.0409495 0.999161 -6.289e-005
-0.359361 0.0514102 0.195986 -0.140965 0.989988 -0.00729161
-0.376239 0.0488131 0.195337 -0.367842 0.929845 -0.00896617
0.370318 0.0319343 0.195986 0.848747 0.528795 0.00207102
-0.390522 0.0423216 0.19339 -0.735925 0.677036 0.00603328
0.374861 0.0195988 0.195986 0.962601 -0.270896 -0.00370293
-0.398961 0.0319332 0.189495 -0.95974 0.280886 -0.00171421
-0.398961 0.0195988 0.202478 -0.959725 -0.280937 0.0017144
0.370317 0.00921156 0.195986 0.902185 -0.431239 0.00976947
0.357982 0.00271884 0.195986 0.471791 -0.881647 0.0105598
0.341753 0.000121752 0.195986 0.166312 -0.986048 -0.00711766
0.324225 -0.000526945 0.195986 0.04192 -0.999121 -2.36357e-007
0.306697 -0.000526945 0.195986 0.00484695 -0.999988 1.00816e-008
0.28917 -0.000526945 0.195986 1.06553e-019 -1 -5.08096e-019
0.271641 -0.000526945 0.195986 1.06553e-019 -1 5.08133e-019
0.254114 -0.000526945 0.195986 0 -1 0
0.236586 -0.000526945 0.195986 -0 -1 -0
0.219058 -0.000526945 0.195986 1.06553e-019 -1 5.08134e-019
0.20153 -0.000526945 0.195986 5.85835e-020 -1 -2.48837e-019
0.184003 -0.000526945 0.195986 1.06553e-019 -1 -5.07983e-019
0.166474 -0.000526945 0.195986 -8.24957e-022 -1 -8.52376e-019
0.148947 -0.000526945 0.195986 -4.13867e-019 -1 -2.77609e-019
0.131419 -0.000526945 0.195986 -2.06172e-020 -1 2.67413e-019
0.11389 -0.000526945 0.195986 -1.20378e-019 -1 5.03319e-019
0.096363 -0.000526945 0.195986 2.40228e-019 -1 4.00463e-019
0.0788355 -0.000526945 0.195986 -0 -1 -0
0.0613069 -0.000526945 0.195986 -8.68971e-020 -1 -2.04075e-019
0.0437794 -0.000526945 0.195986 0 -1 0
0.0262519 -0.000526945 0.195986 -0 -1 -0
0.00872331 -0.000526945 0.195986 0 -1 0
-0.00880416 -0.000526945 0.195986 0 -1 0
-0.0263316 -0.000526945 0.195986 -0 -1 -0
-0.0438591 -0.000526945 0.195986 1.0717e-019 -1 3.99103e-019
-0.0613877 -0.000526945 0.195986 8.68971e-020 -1 2.04056e-019
-0.0789152 -0.000526945 0.195986 6.54094e-019 -1 -3.20767e-019
-0.0964427 -0.000526945 0.195986 -8.6897e-020 -1 2.04075e-019
-0.113971 -0.000526945 0.195986 2.06172e-020 -1 2.6747e-019
-0.131499 -0.000526945 0.195986 -0 -1 -0
-0.149026 -0.000526945 0.195986 -1.06553e-019 -1 5.07983e-019
-0.166555 -0.000526945 0.195986 -1.06553e-019 -1 -5.07983e-019
-0.184082 -0.000526945 0.195986 4.17866e-019 -1 4.00463e-019
-0.20161 -0.000526945 0.195986 2.06171e-020 -1 -2.67394e-019
-0.219138 -0.000526945 0.195986 -1.06553e-019 -1 -5.08171e-019
-0.236666 -0.000526945 0.195986 -4.76447e-019 -1 2.99757e-019
-0.254193 -0.000526945 0.195986 -1.06553e-019 -1 5.07832e-019
-0.271722 -0.000526945 0.195986 1.06553e-019 -1 5.0787e-019
-0.289249 -0.000526945 0.195986 1.18303e-034 -1 -5.44427e-019
-0.306777 -0.000526945 0.195986 1.06553e-019 -1 -5.0787e-019
-0.324306 -0.000526945 0.195986 -0.00484706 -0.999988 1.00825e-008
-0.341833 -0.000526945 0.195986 -0.0409302 -0.999162 6.25157e-005
-0.359361 0.000121752 0.195986 -0.140858 -0.990029 0.00133359
-0.376239 0.00271884 0.196636 -0.367835 -0.929848 0.00896218
-0.390522 0.00921156 0.198583 -0.735952 -0.677007 -0.00603162
0.463679 0.847939 0.179771 0.514423 0.85072 0.107913
0.44692 0.855106 0.178529 0.29783 0.952396 0.0651048
0.429392 0.857773 0.178459 0.115753 0.992949 0.0255621
0.411864 0.85834 0.178459 -0.0195794 0.999795 -0.00507623
0.394336 0.857447 0.178459 -0.158519 0.986818 -0.0325752
0.377327 0.854115 0.177967 -0.357781 0.93052 -0.0782675
0.478955 0.834033 0.184516 0.75139 0.642381 0.15086
0.362312 0.846198 0.176056 -0.585963 0.799283 -0.133396
0.352374 0.835736 0.17191 -0.745643 0.646233 -0.162481
0.343652 0.822488 0.175417 -0.854557 0.482243 -0.192807
0.494959 0.804962 0.180861 0.929361 0.322167 0.180269
0.336284 0.805533 0.177633 -0.915081 0.338608 -0.219024
0.498765 0.788199 0.17895 0.954904 0.226477 0.192008
0.330748 0.78813 0.178361 -0.939359 0.255441 -0.228811
0.501777 0.770699 0.178459 0.962397 0.174583 0.208115
0.326495 0.770699 0.178459 -0.956239 0.190609 -0.22198
0.509706 0.753199 0.160439 0.961376 0.147642 0.232288
0.504977 0.753033 0.178157 0.96505 0.133271 0.22565
0.323818 0.753269 0.178556 -0.970551 0.121732 -0.207874
0.322578 0.735908 0.178584 -0.978091 0.0534557 -0.201197
0.509649 0.718584 0.17207 0.972228 -0.0127261 0.233689
0.322357 0.718408 0.178912 -0.978428 -0.0135896 -0.20614
0.505492 0.699755 0.183401 0.967838 -0.0927717 0.233843
0.322777 0.700949 0.180151 -0.97456 -0.0747069 -0.211309
0.504597 0.680578 0.17568 0.959944 -0.157309 0.231865
0.324276 0.683863 0.180541 -0.968211 -0.126034 -0.21606
0.500082 0.662636 0.179986 0.948182 -0.216351 0.232685
0.325622 0.669941 0.183141 -0.959493 -0.172729 -0.222573
0.498832 0.651069 0.174884 0.935635 -0.265179 0.232954
0.329747 0.651658 0.182618 -0.942861 -0.245252 -0.225534
0.493117 0.633884 0.174864 0.902452 -0.370293 0.220143
0.338679 0.627762 0.177823 -0.885562 -0.40768 -0.22266
0.483364 0.614183 0.177607 0.813032 -0.548176 0.19617
0.346905 0.610031 0.184106 -0.764457 -0.612494 -0.201136
0.47376 0.602039 0.180099 0.699478 -0.691752 0.179471
0.464728 0.592438 0.173958 0.573276 -0.80655 0.144334
0.360035 0.597145 0.183772 -0.61392 -0.773999 -0.155008
0.448369 0.585265 0.173821 0.366863 -0.924707 0.101631
0.429939 0.580576 0.177606 0.163335 -0.985405 0.0479521
0.412291 0.579167 0.178584 -0.024018 -0.999694 0.00594532
0.394827 0.581138 0.178556 -0.223367 -0.974208 -0.0320243
0.377606 0.587324 0.179581 -0.421162 -0.902588 -0.0892069
0.357982 0.0423216 0.178459 0.597026 0.802203 -0.00548161
0.341753 0.0488131 0.178459 0.288422 0.957503 6.58439e-010
0.324225 0.0514102 0.178459 0.12961 0.991565 5.71721e-009
0.306697 0.0520601 0.178459 0.033505 0.999439 -7.78042e-010
0.28917 0.0520601 0.178459 0.00485563 0.999988 -4.28831e-010
0.271641 0.0520601 0.178459 -1.40841e-017 1 3.42441e-017
0.254114 0.0520601 0.178459 -9.75365e-017 1 -4.23806e-017
0.236586 0.0520601 0.178459 -5.09648e-021 1 3.42442e-017
0.219058 0.0520601 0.178459 -2.05235e-017 1 3.75098e-018
0.20153 0.0520601 0.178459 2.48266e-017 1 -2.76053e-017
0.184003 0.0520601 0.178459 -2.23645e-017 1 3.42436e-017
0.166474 0.0520601 0.178459 -1.68397e-017 1 3.42443e-017
0.148947 0.0520601 0.178459 3.72385e-017 1 -4.7306e-017
0.131419 0.0520601 0.178459 -2.47041e-017 1 3.75049e-018
0.11389 0.0520601 0.178459 -1.77665e-017 1 3.75076e-018
0.096363 0.0520601 0.178459 -6.31635e-017 1 -4.23807e-017
0.0788355 0.0520601 0.178459 -5.51906e-018 1 3.42438e-017
0.0613069 0.0520601 0.178459 1.22281e-017 1 3.42442e-017
0.0437794 0.0520601 0.178459 2.95989e-017 1 -4.23807e-017
0.0262519 0.0520601 0.178459 -0 1 -0
0.00872331 0.0520601 0.178459 0 1 0
-0.00880416 0.0520601 0.178459 1.15877e-017 1 -7.9048e-018
-0.0263316 0.0520601 0.178459 4.64031e-017 1 -2.7606e-017
-0.0438591 0.0520601 0.178459 -2.90736e-017 1 3.4244e-017
-0.0613877 0.0520601 0.178459 -7.20401e-017 1 3.42439e-017
-0.0789152 0.0520601 0.178459 -0 1 -0
-0.0964427 0.0520601 0.178459 3.97078e-017 1 3.42442e-017
-0.113971 0.0520601 0.178459 1.86815e-017 1 3.75028e-018
-0.131499 0.0520601 0.178459 -9.86395e-032 1 8.25273e-017
-0.149026 0.0520601 0.178459 4.54477e-018 1 3.42443e-017
-0.166555 0.0520601 0.178459 -1.27978e-017 1 3.42434e-017
-0.184082 0.0520601 0.178459 -4.96529e-017 1 -4.54794e-017
-0.20161 0.0520601 0.178459 1.68406e-017 1 3.42443e-017
-0.219138 0.0520601 0.178459 2.23671e-017 1 3.42436e-017
-0.236666 0.0520601 0.178459 1.15992e-017 1 -2.96956e-017
-0.254193 0.0520601 0.178459 1.68381e-017 1 3.42443e-017
-0.271722 0.0520601 0.178459 0 1 0
-0.289249 0.0520601 0.178459 -2.06552e-019 1 1.76351e-019
-0.306777 0.0520601 0.178459 -6.14067e-017 1 3.42443e-017
-0.324306 0.0520601 0.178459 -0.00485563 0.999988 -4.28831e-010
-0.341833 0.0520601 0.178459 -0.0409495 0.999161 -6.26533e-005
-0.359361 0.0514102 0.178459 -0.140865 0.990028 -0.00133476
-0.376239 0.0488131 0.17781 -0.367842 0.929845 -0.00896634
0.370318 0.0319343 0.178459 0.849274 0.527894 -0.00790264
-0.390522 0.0423216 0.175862 -0.735926 0.677035 0.00603445
0.374861 0.0195988 0.178459 0.963071 -0.269247 -2.0155e-008
-0.398961 0.0319332 0.171967 -0.95974 0.280886 -0.00171379
-0.398961 0.0195988 0.18495 -0.959725 -0.280937 0.00171498
0.370317 0.00921156 0.178459 0.901787 -0.432016 -0.011966
0.357982 0.00271884 0.178459 0.47173 -0.881676 -0.0108992
0.341753 0.000121752 0.178459 0.178938 -0.983838 -0.0066873
0.324225 -0.000526945 0.178459 0.04192 -0.999121 3.41853e-009
0.306697 -0.000526945 0.178459 0.00484696 -0.999988 -4.28043e-010
0.28917 -0.000526945 0.178459 -3.63855e-019 -1 4.76453e-019
0.271641 -0.000526945 0.178459 -0 -1 -0
0.254114 -0.000526945 0.178459 0 -1 0
0.236586 -0.000526945 0.178459 0 -1 0
0.219058 -0.000526945 0.178459 1.18213e-018 -1 4.76462e-019
0.20153 -0.000526945 0.178459 1.93957e-019 -1 -4.02796e-019
0.184003 -0.000526945 0.178459 1.34555e-019 -1 4.76458e-019
0.166474 -0.000526945 0.178459 -0 -1 -0
0.148947 -0.000526945 0.178459 1.9395e-019 -1 -1.01843e-018
0.131419 -0.000526945 0.178459 0 -1 0
0.11389 -0.000526945 0.178459 -3.96638e-019 -1 4.76461e-019
0.096363 -0.000526945 0.178459 0 -1 0
0.0788355 -0.000526945 0.178459 9.4604e-019 -1 4.76458e-019
0.0613069 -0.000526945 0.178459 -3.97767e-019 -1 4.7646e-019
0.0437794 -0.000526945 0.178459 3.62353e-019 -1 8.66483e-019
0.0262519 -0.000526945 0.178459 2.55398e-019 -1 4.76459e-019
0.00872331 -0.000526945 0.178459 -0 -1 -0
-0.00880416 -0.000526945 0.178459 0 -1 0
-0.0263316 -0.000526945 0.178459 -0 -1 -0
-0.0438591 -0.000526945 0.178459 3.48198e-019 -1 4.76459e-019
-0.0613877 -0.000526945 0.178459 -0 -1 -0
-0.0789152 -0.000526945 0.178459 -1.18719e-018 -1 -9.4148e-019
-0.0964427 -0.000526945 0.178459 2.98626e-019 -1 4.76458e-019
-0.113971 -0.000526945 0.178459 -0 -1 -0
-0.131499 -0.000526945 0.178459 1.42905e-034 -1 9.01395e-020
-0.149026 -0.000526945 0.178459 -1.01693e-018 -1 4.76462e-019
-0.166555 -0.000526945 0.178459 7.21134e-019 -1 4.76455e-019
-0.184082 -0.000526945 0.178459 7.45659e-020 -1 -4.79746e-019
-0.20161 -0.000526945 0.178459 2.05677e-019 -1 4.76462e-019
-0.219138 -0.000526945 0.178459 3.20779e-019 -1 4.76456e-019
-0.236666 -0.000526945 0.178459 -0 -1 -0
-0.254193 -0.000526945 0.178459 -1.44871e-020 -1 4.76462e-019
-0.271722 -0.000526945 0.178459 -2.48734e-019 -1 4.76464e-019
-0.289249 -0.000526945 0.178459 9.68958e-034 -1 1.02831e-019
-0.306777 -0.000526945 0.178459 0 -1 0
-0.324306 -0.000526945 0.178459 -0.00484707 -0.999988 -4.28075e-010
-0.341833 -0.000526945 0.178459 -0.0409302 -0.999162 6.27067e-005
-0.359361 0.000121752 0.178459 -0.140958 -0.989989 0.00729576
-0.376239 0.00271884 0.179107 -0.367835 -0.929848 0.00896187
-0.390522 0.00921156 0.181056 -0.735952 -0.677006 -0.00603302
0.463813 0.850047 0.161469 0.470409 0.876142 0.105313
0.44692 0.856149 0.160931 0.251786 0.965901 0.0603228
0.429392 0.858016 0.160931 0.0819044 0.996443 0.0198101
0.411864 0.858258 0.160931 -0.0456145 0.998896 -0.0112469
0.394336 0.85688 0.160931 -0.201663 0.978226 -0.0490438
0.478888 0.838225 0.163796 0.695047 0.703607 0.147808
0.377499 0.852372 0.160504 -0.417103 0.903284 -0.100514
0.48973 0.821981 0.169848 0.858758 0.486118 0.161937
0.362609 0.842942 0.158867 -0.637284 0.757443 -0.141948
0.349984 0.82554 0.155708 -0.831471 0.526174 -0.178315
0.497047 0.806104 0.16311 0.921857 0.342686 0.180957
0.341093 0.80627 0.15973 -0.914536 0.34929 -0.204008
0.501661 0.788366 0.161233 0.948314 0.246967 0.199267
0.335399 0.788297 0.160861 -0.940443 0.258757 -0.220478
0.51046 0.770699 0.143403 0.952032 0.204245 0.227857
0.505753 0.770699 0.160931 0.956072 0.194291 0.219492
0.330797 0.770699 0.16093 -0.95203 0.204252 -0.227858
0.327064 0.753366 0.161288 -0.965471 0.140424 -0.219422
0.512833 0.736436 0.158998 0.97217 0.070678 0.223362
0.325292 0.736576 0.161913 -0.976527 0.062244 -0.206204
0.513892 0.722702 0.156035 0.976217 0.00745818 0.216667
0.325173 0.719489 0.161778 -0.978845 -0.0118386 -0.204259
0.511128 0.703616 0.161418 0.97164 -0.0779167 0.223261
0.325927 0.701989 0.162924 -0.975183 -0.0813834 -0.205902
0.510468 0.683882 0.153511 0.963668 -0.141289 0.226675
0.326417 0.687662 0.16723 -0.969099 -0.125742 -0.212217
0.504519 0.662402 0.16235 0.948039 -0.21514 0.234384
0.329963 0.668911 0.165651 -0.959241 -0.176739 -0.220499
0.499934 0.64494 0.163686 0.926331 -0.298472 0.229837
0.337118 0.645049 0.158744 -0.927934 -0.298329 -0.223468
0.497736 0.633444 0.157634 0.898865 -0.376213 0.224733
0.34339 0.626528 0.158931 -0.878075 -0.432144 -0.205512
0.488983 0.616436 0.157094 0.825125 -0.530266 0.1949
0.349747 0.612378 0.168429 -0.793499 -0.57775 -0.19122
0.473674 0.598559 0.162481 0.65511 -0.740346 0.150725
0.363189 0.59865 0.162776 -0.655907 -0.743354 -0.131194
0.456746 0.58643 0.159398 0.425898 -0.89928 0.0995262
0.442106 0.58088 0.155985 0.243581 -0.968201 0.0570533
0.429132 0.57964 0.159716 0.112726 -0.993023 0.0346048
0.412889 0.579158 0.161626 -0.0539447 -0.99853 -0.00518995
0.396409 0.580989 0.161723 -0.241624 -0.969445 -0.0423621
0.379416 0.587433 0.161009 -0.451982 -0.889021 -0.0731689
0.357982 0.0423216 0.160931 0.597026 0.802203 -0.00548294
0.341753 0.0488131 0.160931 0.288422 0.957503 -2.45936e-008
0.324225 0.0514102 0.160931 0.12961 0.991565 3.99041e-007
0.306697 0.0520601 0.160931 0.033505 0.999439 -7.71832e-009
0.28917 0.0520601 0.160931 0.00485563 0.999988 -9.93728e-009
0.271641 0.0520601 0.160931 -6.8911e-018 1 -2.67112e-017
0.254114 0.0520601 0.160931 3.4239e-017 1 -5.51846e-018
0.236586 0.0520601 0.160931 6.8911e-018 1 -2.67136e-017
0.219058 0.0520601 0.160931 -9.08963e-018 1 -1.74325e-017
0.20153 0.0520601 0.160931 3.74917e-018 1 -3.67704e-018
0.184003 0.0520601 0.160931 -0 1 -0
0.166474 0.0520601 0.160931 -2.19852e-018 1 9.29313e-018
0.148947 0.0520601 0.160931 3.44972e-017 1 9.20607e-019
0.131419 0.0520601 0.160931 2.14348e-018 1 -4.52695e-017
0.11389 0.0520601 0.160931 -2.19853e-018 1 9.29313e-018
0.096363 0.0520601 0.160931 3.02372e-017 1 -2.53558e-022
0.0788355 0.0520601 0.160931 -6.8911e-018 1 2.67039e-017
0.0613069 0.0520601 0.160931 5.50674e-018 1 4.14991e-017
0.0437794 0.0520601 0.160931 1.53745e-017 1 2.76216e-018
0.0262519 0.0520601 0.160931 -0 1 -0
0.00872331 0.0520601 0.160931 0 1 0
-0.00880416 0.0520601 0.160931 5.6326e-018 1 1.24033e-017
-0.0263316 0.0520601 0.160931 -4.05063e-018 1 1.2406e-017
-0.0438591 0.0520601 0.160931 2.14349e-018 1 -4.52695e-017
-0.0613877 0.0520601 0.160931 0 1 0
-0.0789152 0.0520601 0.160931 -0 1 -0
-0.0964427 0.0520601 0.160931 -5.49766e-018 1 -1.53871e-017
-0.113971 0.0520601 0.160931 2.19853e-018 1 -9.29795e-018
-0.131499 0.0520601 0.160931 0 1 5.14241e-018
-0.149026 0.0520601 0.160931 1.39343e-018 1 -4.20849e-017
-0.166555 0.0520601 0.160931 9.08963e-018 1 1.74035e-017
-0.184082 0.0520601 0.160931 -6.09854e-017 1 -2.7564e-018
-0.20161 0.0520601 0.160931 6.8911e-018 1 -2.67111e-017
-0.219138 0.0520601 0.160931 6.8911e-018 1 2.67136e-017
-0.236666 0.0520601 0.160931 7.9718e-017 1 -2.76185e-018
-0.254193 0.0520601 0.160931 2.19851e-018 1 9.31725e-018
-0.271722 0.0520601 0.160931 6.8911e-018 1 2.66943e-017
-0.289249 0.0520601 0.160931 -0 1 2.77556e-017
-0.306777 0.0520601 0.160931 2.19851e-018 1 9.31242e-018
-0.324306 0.0520601 0.160931 -0.00485563 0.999988 -9.93727e-009
-0.341833 0.0520601 0.160931 -0.0409495 0.999161 -6.2466e-005
-0.359361 0.0514102 0.160931 -0.140865 0.990028 -0.00133494
-0.376239 0.0488131 0.160281 -0.367842 0.929845 -0.0089667
0.370318 0.0319343 0.160931 0.849274 0.527894 -0.0079019
-0.390522 0.0423216 0.158334 -0.735925 0.677036 0.00603323
0.374861 0.0195988 0.160931 0.963071 -0.269247 -1.44223e-006
-0.398961 0.0319332 0.154438 -0.95974 0.280886 -0.00171429
-0.398961 0.0195988 0.167423 -0.959725 -0.280937 0.00171514
0.370317 0.00921156 0.160931 0.901786 -0.432016 -0.0119671
0.357982 0.00271884 0.160931 0.47173 -0.881676 -0.0108992
0.341753 0.000121752 0.160931 0.166368 -0.986039 0.00699354
0.324225 -0.000526945 0.160931 0.04192 -0.999121 2.39159e-007
0.306697 -0.000526945 0.160931 0.00484695 -0.999988 -9.91887e-009
0.28917 -0.000526945 0.160931 -1.07673e-019 -1 4.17324e-019
0.271641 -0.000526945 0.160931 -1.07673e-019 -1 -4.17362e-019
0.254114 -0.000526945 0.160931 5.85504e-020 -1 1.43817e-020
0.236586 -0.000526945 0.160931 0 -1 0
0.219058 -0.000526945 0.160931 8.59011e-020 -1 -2.40592e-019
0.20153 -0.000526945 0.160931 4.76449e-019 -1 5.75434e-020
0.184003 -0.000526945 0.160931 -3.34919e-020 -1 7.07298e-019
0.166474 -0.000526945 0.160931 8.59009e-020 -1 -2.40423e-019
0.148947 -0.000526945 0.160931 -4.13867e-019 -1 1.43857e-020
0.131419 -0.000526945 0.160931 0 -1 0
0.11389 -0.000526945 0.160931 -1.07673e-019 -1 -4.17249e-019
0.096363 -0.000526945 0.160931 2.40228e-019 -1 -4.31588e-020
0.0788355 -0.000526945 0.160931 -1.41773e-022 -1 8.88846e-019
0.0613069 -0.000526945 0.160931 -1.41773e-022 -1 -8.88846e-019
0.0437794 -0.000526945 0.160931 -0 -1 -0
0.0262519 -0.000526945 0.160931 0 -1 0
0.00872331 -0.000526945 0.160931 -0 -1 -0
-0.00880416 -0.000526945 0.160931 -0 -1 -0
-0.0263316 -0.000526945 0.160931 0 -1 0
-0.0438591 -0.000526945 0.160931 1.41773e-022 -1 -8.88856e-019
-0.0613877 -0.000526945 0.160931 3.34918e-020 -1 7.07354e-019
-0.0789152 -0.000526945 0.160931 -8.90305e-019 -1 -4.31585e-020
-0.0964427 -0.000526945 0.160931 -1.41773e-022 -1 8.88846e-019
-0.113971 -0.000526945 0.160931 3.34919e-020 -1 7.07298e-019
-0.131499 -0.000526945 0.160931 -0 -1 -0
-0.149026 -0.000526945 0.160931 1.07673e-019 -1 -4.17211e-019
-0.166555 -0.000526945 0.160931 3.34919e-020 -1 7.07298e-019
-0.184082 -0.000526945 0.160931 4.17866e-019 -1 -4.31595e-020
-0.20161 -0.000526945 0.160931 0 -1 0
-0.219138 -0.000526945 0.160931 3.3492e-020 -1 7.07392e-019
-0.236666 -0.000526945 0.160931 0 -1 0
-0.254193 -0.000526945 0.160931 1.07673e-019 -1 -4.1706e-019
-0.271722 -0.000526945 0.160931 -1.07673e-019 -1 -4.17098e-019
-0.289249 -0.000526945 0.160931 -0 -1 -0
-0.306777 -0.000526945 0.160931 -1.07673e-019 -1 4.17098e-019
-0.324306 -0.000526945 0.160931 -0.00484706 -0.999988 -9.91975e-009
-0.341833 -0.000526945 0.160931 -0.0409302 -0.999162 6.29402e-005
-0.359361 0.000121752 0.160931 -0.140958 -0.989989 0.00729581
-0.376239 0.00271884 0.16158 -0.367835 -0.929848 0.00896131
-0.390522 0.00921156 0.163527 -0.735952 -0.677007 -0.00603185
0.463757 0.852372 0.14383 0.417104 0.903284 0.10051
0.44692 0.85688 0.143403 0.201663 0.978226 0.0490422
0.429392 0.858258 0.143403 0.0456148 0.998896 0.0112469
0.411864 0.858016 0.143403 -0.0819041 0.996443 -0.01981
0.394336 0.856149 0.143403 -0.251786 0.965901 -0.0603229
0.478647 0.842942 0.145467 0.637284 0.757443 0.141945
0.478944 0.846198 0.128277 0.585963 0.799284 0.13339
0.377443 0.850047 0.142865 -0.470409 0.876142 -0.105313
0.491273 0.82554 0.148625 0.831471 0.526174 0.178316
0.488882 0.835736 0.132425 0.745642 0.646234 0.162476
0.362368 0.838225 0.140537 -0.695048 0.703606 -0.147802
0.351526 0.821981 0.134486 -0.85876 0.486117 -0.16193
0.500163 0.80627 0.144604 0.91454 0.349282 0.204008
0.344209 0.806104 0.141224 -0.921856 0.34269 -0.180957
0.510508 0.78813 0.125973 0.93936 0.255435 0.228812
0.505857 0.788297 0.143472 0.940446 0.258749 0.220478
0.339595 0.788366 0.143101 -0.948311 0.246977 -0.199271
0.335502 0.770699 0.143403 -0.956069 0.194297 -0.219501
0.514193 0.753366 0.143046 0.965419 0.140602 0.219541
0.33155 0.753199 0.143894 -0.961374 0.147642 -0.232295
0.515963 0.736576 0.14242 0.976285 0.0620773 0.207397
0.328423 0.736436 0.145336 -0.972238 0.0704754 -0.223129
0.516083 0.719489 0.142556 0.978003 -0.0089756 0.208398
0.327364 0.722702 0.148299 -0.976577 0.00642781 -0.215074
0.515352 0.702058 0.141479 0.973334 -0.0760481 0.216418
0.330127 0.703616 0.142915 -0.972091 -0.078916 -0.220931
0.515061 0.687863 0.13707 0.967153 -0.120416 0.223862
0.330788 0.683882 0.150822 -0.964998 -0.142846 -0.219942
0.511574 0.668851 0.138599 0.955715 -0.179267 0.233392
0.336737 0.662402 0.141984 -0.949772 -0.213242 -0.229045
0.504138 0.644976 0.14566 0.92576 -0.300185 0.229907
0.341346 0.644868 0.140576 -0.930736 -0.290903 -0.2216
0.49789 0.6266 0.145331 0.872993 -0.437827 0.214919
0.343569 0.633301 0.146557 -0.9044 -0.368575 -0.214974
0.491528 0.612437 0.135845 0.790318 -0.581142 0.194091
0.352275 0.616097 0.146832 -0.831123 -0.527079 -0.177263
0.477988 0.598804 0.141438 0.654283 -0.742109 0.145561
0.367255 0.598255 0.141295 -0.65927 -0.741296 -0.125867
0.461678 0.587494 0.143168 0.45186 -0.887775 0.087622
0.444782 0.580957 0.142513 0.245898 -0.968332 0.0432016
0.428367 0.579158 0.142707 0.0623601 -0.997984 0.0117774
0.412212 0.5795 0.144558 -0.103452 -0.994283 -0.0264422
0.399177 0.580752 0.14816 -0.23145 -0.971769 -0.0457754
0.384342 0.586233 0.144432 -0.418321 -0.904695 -0.0808377
0.357982 0.0423216 0.143403 0.597026 0.802203 0.00548301
0.341753 0.0488131 0.143403 0.288422 0.957503 2.47136e-008
0.324225 0.0514102 0.143403 0.12961 0.991565 -4.13708e-007
0.306697 0.0520601 0.143403 0.033505 0.999439 8.51968e-009
0.28917 0.0520601 0.143403 0.00485563 0.999988 1.05247e-008
0.271641 0.0520601 0.143403 -9.01595e-018 1 -4.17951e-017
0.254114 0.0520601 0.143403 3.04916e-017 1 9.26071e-019
0.236586 0.0520601 0.143403 9.01596e-018 1 -4.17903e-017
0.219058 0.0520601 0.143403 -9.08817e-018 1 1.74333e-017
0.20153 0.0520601 0.143403 3.74934e-018 1 -1.83603e-018
0.184003 0.0520601 0.143403 0 1 0
0.166474 0.0520601 0.143403 -9.08816e-018 1 1.74116e-017
0.148947 0.0520601 0.143403 6.09847e-017 1 -2.75721e-018
0.131419 0.0520601 0.143403 0 1 0
0.11389 0.0520601 0.143403 -7.22088e-020 1 5.92116e-017
0.096363 0.0520601 0.143403 3.04932e-017 1 9.25891e-019
0.0788355 0.0520601 0.143403 -9.01595e-018 1 4.18e-017
0.0613069 0.0520601 0.143403 -9.01595e-018 1 -4.18e-017
0.0437794 0.0520601 0.143403 -8.37234e-017 1 -2.75681e-018
0.0262519 0.0520601 0.143403 -8.9515e-021 1 -5.68863e-017
0.00872331 0.0520601 0.143403 -0 1 -0
-0.00880416 0.0520601 0.143403 -7.67412e-018 1 3.09832e-017
-0.0263316 0.0520601 0.143403 8.95215e-021 1 5.7005e-017
-0.0438591 0.0520601 0.143403 8.9515e-021 1 5.68863e-017
-0.0613877 0.0520601 0.143403 8.95151e-021 1 -5.68875e-017
-0.0789152 0.0520601 0.143403 0 1 0
-0.0964427 0.0520601 0.143403 2.14325e-018 1 4.52682e-017
-0.113971 0.0520601 0.143403 7.22088e-020 1 -5.92067e-017
-0.131499 0.0520601 0.143403 -1.40792e-031 1 -9.02062e-018
-0.149026 0.0520601 0.143403 7.76817e-018 1 3.45254e-017
-0.166555 0.0520601 0.143403 9.08816e-018 1 -1.74044e-017
-0.184082 0.0520601 0.143403 -3.42421e-017 1 5.41704e-021
-0.20161 0.0520601 0.143403 9.01596e-018 1 -4.17927e-017
-0.219138 0.0520601 0.143403 7.22088e-020 1 -5.92309e-017
-0.236666 0.0520601 0.143403 7.97183e-017 1 5.07499e-021
-0.254193 0.0520601 0.143403 7.22086e-020 1 5.91875e-017
-0.271722 0.0520601 0.143403 9.01593e-018 1 4.18096e-017
-0.289249 0.0520601 0.143403 -6.05711e-032 1 4.34029e-017
-0.306777 0.0520601 0.143403 0 1 0
-0.324306 0.0520601 0.143403 -0.00485563 0.999988 1.05247e-008
-0.341833 0.0520601 0.143403 -0.0409495 0.999161 -6.29007e-005
-0.359361 0.0514102 0.143403 -0.140965 0.989988 -0.00729166
-0.376239 0.0488131 0.142754 -0.367842 0.929845 -0.00896589
0.370318 0.0319343 0.143403 0.849274 0.527894 0.00790187
-0.390522 0.0423216 0.140807 -0.735925 0.677036 0.0060333
0.374861 0.0195988 0.143403 0.963071 -0.269247 1.49484e-006
-0.398961 0.0319332 0.136911 -0.95974 0.280886 -0.00171421
-0.398961 0.0195988 0.149894 -0.959725 -0.280937 0.0017144
0.370317 0.00921156 0.143403 0.901786 -0.432016 0.0119671
0.357982 0.00271884 0.143403 0.47173 -0.881676 0.0108992
0.341753 0.000121752 0.143403 0.166368 -0.986039 -0.00699352
0.324225 -0.000526945 0.143403 0.04192 -0.999121 -2.47942e-007
0.306697 -0.000526945 0.143403 0.00484696 -0.999988 1.05052e-008
0.28917 -0.000526945 0.143403 -1.40874e-019 -1 6.53049e-019
0.271641 -0.000526945 0.143403 -1.12826e-021 -1 9.25331e-019
0.254114 -0.000526945 0.143403 0 -1 0
0.236586 -0.000526945 0.143403 -0 -1 -0
0.219058 -0.000526945 0.143403 1.94965e-020 -1 1.19285e-018
0.20153 -0.000526945 0.143403 6.25854e-020 -1 4.12157e-019
0.184003 -0.000526945 0.143403 -0 -1 -0
0.166474 -0.000526945 0.143403 -1.40874e-019 -1 -6.53124e-019
0.148947 -0.000526945 0.143403 -4.13866e-019 -1 4.40929e-019
0.131419 -0.000526945 0.143403 -0 -1 -0
0.11389 -0.000526945 0.143403 -1.40874e-019 -1 -6.53124e-019
0.096363 -0.000526945 0.143403 0 -1 0
0.0788355 -0.000526945 0.143403 -1.39867e-022 -1 -8.88848e-019
0.0613069 -0.000526945 0.143403 0 -1 0
0.0437794 -0.000526945 0.143403 0 -1 0
0.0262519 -0.000526945 0.143403 -0 -1 -0
0.00872331 -0.000526945 0.143403 -2.03265e-020 -1 -1.3831e-018
-0.00880416 -0.000526945 0.143403 0 -1 0
-0.0263316 -0.000526945 0.143403 3.73006e-023 -1 -1.32372e-018
-0.0438591 -0.000526945 0.143403 -1.19895e-019 -1 -4.85055e-019
-0.0613877 -0.000526945 0.143403 3.34882e-020 -1 -7.07354e-019
-0.0789152 -0.000526945 0.143403 6.54093e-019 -1 3.97771e-019
-0.0964427 -0.000526945 0.143403 -1.39867e-022 -1 -8.88848e-019
-0.113971 -0.000526945 0.143403 3.34883e-020 -1 -7.07298e-019
-0.131499 -0.000526945 0.143403 1.53513e-034 -1 -6.7817e-019
-0.149026 -0.000526945 0.143403 1.40874e-019 -1 -6.53162e-019
-0.166555 -0.000526945 0.143403 3.34883e-020 -1 -7.07298e-019
-0.184082 -0.000526945 0.143403 4.17867e-019 -1 4.98473e-019
-0.20161 -0.000526945 0.143403 -0 -1 -0
-0.219138 -0.000526945 0.143403 3.34883e-020 -1 -7.07392e-019
-0.236666 -0.000526945 0.143403 1.24559e-018 -1 4.98467e-019
-0.254193 -0.000526945 0.143403 1.40874e-019 -1 -6.53313e-019
-0.271722 -0.000526945 0.143403 -1.40874e-019 -1 -6.53275e-019
-0.289249 -0.000526945 0.143403 1.25345e-033 -1 -6.7817e-019
-0.306777 -0.000526945 0.143403 -1.40874e-019 -1 6.53275e-019
-0.324306 -0.000526945 0.143403 -0.00484706 -0.999988 1.05061e-008
-0.341833 -0.000526945 0.143403 -0.0409302 -0.999162 6.25058e-005
-0.359361 0.000121752 0.143403 -0.140858 -0.990029 0.00133359
-0.376239 0.00271884 0.144052 -0.367835 -0.929848 0.00896219
-0.390522 0.00921156 0.146 -0.735952 -0.677007 -0.00603163
0.463929 0.854115 0.126367 0.357782 0.93052 0.0782602
0.44692 0.857447 0.125875 0.158522 0.986818 0.0325736
0.429392 0.85834 0.125875 0.0195806 0.999795 0.00507574
0.411864 0.857773 0.125875 -0.115753 0.992949 -0.0255621
0.394336 0.855106 0.125805 -0.29783 0.952396 -0.0651048
0.377577 0.847939 0.124563 -0.514421 0.850721 -0.107909
0.362301 0.834033 0.119818 -0.751391 0.642382 -0.150855
0.497604 0.822488 0.128917 0.854555 0.482246 0.192805
0.351887 0.818028 0.119159 -0.881035 0.440164 -0.1733
0.509651 0.804976 0.109595 0.913905 0.340398 0.22115
0.504972 0.805533 0.1267 0.915083 0.338602 0.219024
0.346298 0.804962 0.123473 -0.929359 0.322172 -0.180267
0.342491 0.788199 0.125383 -0.954902 0.226483 -0.192008
0.51476 0.770699 0.125875 0.956214 0.190699 0.222012
0.339479 0.770699 0.125875 -0.962395 0.174588 -0.208121
0.517438 0.753269 0.125778 0.970312 0.122761 0.208385
0.33628 0.753033 0.126177 -0.965049 0.133273 -0.225651
0.518678 0.735908 0.12575 0.977421 0.0566657 0.203563
0.333614 0.735268 0.127446 -0.970631 0.0648618 -0.231664
0.518946 0.718548 0.12556 0.976947 -0.00509979 0.213421
0.331607 0.718585 0.132263 -0.972255 -0.0127919 -0.233573
0.51878 0.701547 0.12442 0.972348 -0.0617717 0.225217
0.335764 0.699755 0.120933 -0.967838 -0.0927669 -0.233847
0.51774 0.684355 0.122967 0.965004 -0.121526 0.232375
0.336658 0.680578 0.128653 -0.960522 -0.157029 -0.229653
0.516378 0.669409 0.120296 0.954921 -0.177857 0.237684
0.341175 0.662636 0.124347 -0.949924 -0.211771 -0.229779
0.511656 0.651031 0.12218 0.937084 -0.258158 0.235005
0.342448 0.650998 0.129379 -0.939079 -0.257899 -0.227197
0.502577 0.627691 0.126582 0.880998 -0.416096 0.22518
0.348111 0.633646 0.128989 -0.91008 -0.35838 -0.208131
0.49435 0.610031 0.120228 0.762634 -0.614657 0.201459
0.358255 0.612545 0.124136 -0.81563 -0.547363 -0.187459
0.481221 0.597145 0.120562 0.613253 -0.774103 0.157116
0.375156 0.592676 0.127509 -0.582528 -0.801959 -0.132374
0.366096 0.600737 0.125923 -0.702189 -0.692465 -0.165597
0.46365 0.587324 0.124753 0.421753 -0.901977 0.0925338
0.446429 0.581138 0.125778 0.226622 -0.973354 0.034988
0.428965 0.579167 0.12575 0.0329063 -0.999448 -0.00448701
0.411502 0.580243 0.126766 -0.149842 -0.987808 -0.0422301
0.393332 0.584363 0.130299 -0.341682 -0.935663 -0.0882457
0.357982 0.0423216 0.125875 0.597026 0.802203 -0.00548161
0.341753 0.0488131 0.125875 0.288422 0.957503 -1.42588e-009
0.324225 0.0514102 0.125875 0.12961 0.991565 7.25544e-009
0.306697 0.0520601 0.125875 0.033505 0.999439 5.05909e-010
0.28917 0.0520601 0.125875 0.00485563 0.999988 9.66618e-011
0.271641 0.0520601 0.125875 -1.40846e-017 1 4.00369e-018
0.254114 0.0520601 0.125875 7.70962e-018 1 -2.91947e-017
0.236586 0.0520601 0.125875 6.44035e-018 1 3.04915e-017
0.219058 0.0520601 0.125875 -2.3286e-017 1 3.04914e-017
0.20153 0.0520601 0.125875 -2.40469e-017 1 4.47675e-017
0.184003 0.0520601 0.125875 -1.5919e-017 1 3.04917e-017
0.166474 0.0520601 0.125875 -6.4393e-018 1 3.04915e-017
0.148947 0.0520601 0.125875 1.34656e-018 1 -7.73475e-017
0.131419 0.0520601 0.125875 -1.31634e-017 1 3.04917e-017
0.11389 0.0520601 0.125875 -2.0529e-017 1 3.04915e-017
0.096363 0.0520601 0.125875 -7.97168e-017 1 2.76231e-018
0.0788355 0.0520601 0.125875 -5.51854e-018 1 4.00387e-018
0.0613069 0.0520601 0.125875 1.22275e-017 1 4.00372e-018
0.0437794 0.0520601 0.125875 -6.83488e-017 1 1.50635e-017
0.0262519 0.0520601 0.125875 0 1 0
0.00872331 0.0520601 0.125875 -0 1 -0
-0.00880416 0.0520601 0.125875 8.97748e-018 1 -4.28574e-017
-0.0263316 0.0520601 0.125875 8.97748e-018 1 4.28577e-017
-0.0438591 0.0520601 0.125875 -2.26282e-017 1 3.04916e-017
-0.0613877 0.0520601 0.125875 -7.84855e-017 1 3.04916e-017
-0.0789152 0.0520601 0.125875 -0 1 -0
-0.0964427 0.0520601 0.125875 4.61532e-017 1 3.04915e-017
-0.113971 0.0520601 0.125875 1.5919e-017 1 3.04918e-017
-0.131499 0.0520601 0.125875 1.06364e-032 1 -5.06747e-017
-0.149026 0.0520601 0.125875 1.09902e-017 1 3.04912e-017
-0.166555 0.0520601 0.125875 -1.92432e-017 1 3.04918e-017
-0.184082 0.0520601 0.125875 4.43085e-017 1 3.74214e-017
-0.20161 0.0520601 0.125875 2.3286e-017 1 3.04914e-017
-0.219138 0.0520601 0.125875 1.31641e-017 1 3.04917e-017
-0.236666 0.0520601 0.125875 6.02553e-017 1 2.95987e-017
-0.254193 0.0520601 0.125875 2.32835e-017 1 3.04914e-017
-0.271722 0.0520601 0.125875 -0 1 -0
-0.289249 0.0520601 0.125875 -2.7221e-032 1 -7.10009e-018
-0.306777 0.0520601 0.125875 -5.49613e-017 1 3.04916e-017
-0.324306 0.0520601 0.125875 -0.00485563 0.999988 9.6662e-011
-0.341833 0.0520601 0.125875 -0.0409495 0.999161 -6.26532e-005
-0.359361 0.0514102 0.125875 -0.140865 0.990028 -0.00133476
-0.376239 0.0488131 0.125226 -0.367842 0.929845 -0.00896636
0.370318 0.0319343 0.125875 0.849274 0.527894 -0.00790264
-0.390522 0.0423216 0.123278 -0.735926 0.677035 0.00603426
0.374861 0.0195988 0.125875 0.963071 -0.269247 -2.67148e-008
-0.398961 0.0319332 0.119384 -0.95974 0.280886 -0.00171395
-0.398961 0.0195988 0.132367 -0.959725 -0.280937 0.00171494
0.370317 0.00921156 0.125875 0.901787 -0.432016 -0.011966
0.357982 0.00271884 0.125875 0.47173 -0.881676 -0.0108992
0.341753 0.000121752 0.125875 0.178938 -0.983838 -0.0066873
0.324225 -0.000526945 0.125875 0.04192 -0.999121 4.35614e-009
0.306697 -0.000526945 0.125875 0.00484696 -0.999988 9.64885e-011
0.28917 -0.000526945 0.125875 -3.06309e-019 -1 3.19214e-024
0.271641 -0.000526945 0.125875 -2.63231e-019 -1 -1.30466e-024
0.254114 -0.000526945 0.125875 0 -1 0
0.236586 -0.000526945 0.125875 7.20211e-023 -1 -8.90302e-019
0.219058 -0.000526945 0.125875 1.08142e-018 -1 -8.90304e-019
0.20153 -0.000526945 0.125875 3.65926e-019 -1 1.46001e-019
0.184003 -0.000526945 0.125875 1.12459e-018 -1 8.71782e-025
0.166474 -0.000526945 0.125875 1.92099e-019 -1 -9.01932e-025
0.148947 -0.000526945 0.125875 1.20463e-019 -1 4.56243e-019
0.131419 -0.000526945 0.125875 -0 -1 -0
0.11389 -0.000526945 0.125875 -4.97343e-019 -1 -8.90304e-019
0.096363 -0.000526945 0.125875 2.4023e-019 -1 -2.35361e-019
0.0788355 -0.000526945 0.125875 1.00359e-018 -1 8.13106e-025
0.0613069 -0.000526945 0.125875 -4.55313e-019 -1 -6.09527e-025
0.0437794 -0.000526945 0.125875 3.25041e-019 -1 -2.35361e-019
0.0262519 -0.000526945 0.125875 3.12944e-019 -1 -2.47789e-025
0.00872331 -0.000526945 0.125875 -4.25242e-019 -1 2.1265e-025
-0.00880416 -0.000526945 0.125875 -0 -1 -0
-0.0263316 -0.000526945 0.125875 0 -1 0
-0.0438591 -0.000526945 0.125875 4.48903e-019 -1 -8.90303e-019
-0.0613877 -0.000526945 0.125875 -1.12563e-018 -1 8.90303e-019
-0.0789152 -0.000526945 0.125875 -1.40569e-019 -1 1.94066e-019
-0.0964427 -0.000526945 0.125875 3.56172e-019 -1 3.71024e-027
-0.113971 -0.000526945 0.125875 0 -1 0
-0.131499 -0.000526945 0.125875 -1.07458e-033 -1 -4.03094e-019
-0.149026 -0.000526945 0.125875 -9.59384e-019 -1 -6.41467e-025
-0.166555 -0.000526945 0.125875 6.63588e-019 -1 2.05989e-024
-0.184082 -0.000526945 0.125875 -3.65926e-019 -1 1.46001e-019
-0.20161 -0.000526945 0.125875 4.43539e-019 -1 -8.90304e-019
-0.219138 -0.000526945 0.125875 -4.00458e-019 -1 -8.90302e-019
-0.236666 -0.000526945 0.125875 7.10622e-019 -1 4.72394e-024
-0.254193 -0.000526945 0.125875 -9.95975e-023 -1 8.90302e-019
-0.271722 -0.000526945 0.125875 -2.63122e-019 -1 8.903e-019
-0.289249 -0.000526945 0.125875 -0 -1 -0
-0.306777 -0.000526945 0.125875 -0 -1 -0
-0.324306 -0.000526945 0.125875 -0.00484707 -0.999988 9.64913e-011
-0.341833 -0.000526945 0.125875 -0.0409302 -0.999162 6.27073e-005
-0.359361 0.000121752 0.125875 -0.140958 -0.989989 0.00729576
-0.376239 0.00271884 0.126524 -0.367835 -0.929848 0.00896185
-0.390522 0.00921156 0.128472 -0.735952 -0.677006 -0.00603303
0.480326 0.847537 0.110517 0.548708 0.827906 0.116151
0.464285 0.854793 0.108649 0.316203 0.946372 0.0663033
0.44692 0.857691 0.108348 0.126422 0.991724 0.0223851
0.429392 0.85834 0.108348 -0.00782584 0.999964 -0.00339813
0.411864 0.857447 0.108348 -0.147758 0.988478 -0.0328515
0.394498 0.854224 0.108046 -0.334258 0.939455 -0.0754778
0.491771 0.836281 0.116902 0.732843 0.659725 0.166445
0.378477 0.846101 0.106098 -0.557273 0.821345 -0.121819
0.367033 0.834893 0.0997128 -0.740077 0.650703 -0.169917
0.507213 0.81886 0.0966493 0.863481 0.459372 0.208275
0.502515 0.821351 0.111365 0.85433 0.479115 0.201418
0.35656 0.820643 0.105138 -0.861585 0.468317 -0.195832
0.349753 0.804742 0.106895 -0.925212 0.317232 -0.208196
0.5148 0.788102 0.108611 0.942197 0.247085 0.226306
0.345306 0.788033 0.10799 -0.952956 0.217301 -0.211318
0.518168 0.770699 0.108348 0.958536 0.178686 0.221991
0.342563 0.770699 0.108348 -0.96275 0.16555 -0.213789
0.52531 0.753172 0.0908201 0.963692 0.121781 0.237629
0.520766 0.753172 0.108348 0.967292 0.120341 0.223305
0.340314 0.753102 0.108416 -0.96891 0.120552 -0.216059
0.522551 0.735644 0.108348 0.971503 0.0605858 0.229155
0.338181 0.735101 0.10908 -0.97327 0.0596804 -0.221776
0.523258 0.718144 0.10818 0.97251 0.00195849 0.232853
0.337069 0.715068 0.111019 -0.97375 -0.0263965 -0.226084
0.52318 0.700334 0.107188 0.970031 -0.058565 0.235818
0.339981 0.697276 0.105369 -0.968825 -0.105284 -0.224263
0.521984 0.680248 0.104194 0.962391 -0.131075 0.237956
0.34094 0.683694 0.109164 -0.962665 -0.152341 -0.223759
0.517586 0.662565 0.109636 0.950363 -0.20257 0.23617
0.342357 0.669434 0.11328 -0.954163 -0.193792 -0.228073
0.51636 0.651069 0.104772 0.937535 -0.257971 0.233409
0.347013 0.651052 0.1118 -0.940121 -0.257969 -0.222765
0.510774 0.634166 0.104765 0.902934 -0.366855 0.223892
0.355444 0.628051 0.10665 -0.892201 -0.393316 -0.221991
0.50155 0.615121 0.107171 0.81114 -0.548942 0.20178
0.360582 0.613738 0.109752 -0.815102 -0.538899 -0.212594
0.490161 0.601221 0.106609 0.673303 -0.719206 0.17148
0.477755 0.591118 0.102789 0.513002 -0.848537 0.129665
0.38127 0.591638 0.114645 -0.539312 -0.82993 -0.142684
0.36819 0.602845 0.112903 -0.723294 -0.667209 -0.177984
0.464226 0.585826 0.106149 0.365373 -0.926466 0.0903515
0.447198 0.580896 0.108069 0.186644 -0.981815 0.0346841
0.429749 0.57919 0.108542 0.000155049 -0.99998 -0.00630538
0.412244 0.580896 0.108751 -0.193039 -0.980008 -0.0481666
0.394933 0.586064 0.110536 -0.379474 -0.919424 -0.103245
0.357982 0.0423216 0.108348 0.597026 0.802203 -0.00548295
0.341753 0.0488131 0.108348 0.288422 0.957503 -2.25093e-008
0.324225 0.0514102 0.108348 0.12961 0.991565 3.97503e-007
0.306697 0.0520601 0.108348 0.033505 0.999439 -9.00227e-009
0.28917 0.0520601 0.108348 0.00485563 0.999988 -1.04628e-008
0.271641 0.0520601 0.108348 -9.01515e-018 1 4.1788e-017
0.254114 0.0520601 0.108348 0 1 0
0.236586 0.0520601 0.108348 9.01515e-018 1 4.17856e-017
0.219058 0.0520601 0.108348 -9.08573e-018 1 -1.74473e-017
0.20153 0.0520601 0.108348 3.74918e-018 1 -1.77676e-017
0.184003 0.0520601 0.108348 -0 1 -0
0.166474 0.0520601 0.108348 -9.01515e-018 1 4.17953e-017
0.148947 0.0520601 0.108348 3.44972e-017 1 2.37875e-017
0.131419 0.0520601 0.108348 -9.01515e-018 1 -4.17929e-017
0.11389 0.0520601 0.108348 2.07228e-018 1 -1.39501e-017
0.096363 0.0520601 0.108348 3.02372e-017 1 2.28671e-017
0.0788355 0.0520601 0.108348 -9.01515e-018 1 -4.17953e-017
0.0613069 0.0520601 0.108348 6.82797e-018 1 2.43754e-017
0.0437794 0.0520601 0.108348 1.53745e-017 1 2.56297e-017
0.0262519 0.0520601 0.108348 8.97082e-018 1 -6.96461e-017
0.00872331 0.0520601 0.108348 0 1 0
-0.00880416 0.0520601 0.108348 -3.37678e-017 1 1.23978e-017
-0.0263316 0.0520601 0.108348 3.53498e-017 1 1.24004e-017
-0.0438591 0.0520601 0.108348 -8.97082e-018 1 6.96461e-017
-0.0613877 0.0520601 0.108348 0 1 0
-0.0789152 0.0520601 0.108348 -0 1 -0
-0.0964427 0.0520601 0.108348 1.31959e-018 1 1.71175e-017
-0.113971 0.0520601 0.108348 6.94287e-018 1 -2.78512e-017
-0.131499 0.0520601 0.108348 -4.5069e-033 1 -1.945e-018
-0.149026 0.0520601 0.108348 6.94287e-018 1 2.78512e-017
-0.166555 0.0520601 0.108348 9.08572e-018 1 1.74184e-017
-0.184082 0.0520601 0.108348 2.67435e-017 1 2.0105e-017
-0.20161 0.0520601 0.108348 9.01516e-018 1 4.1788e-017
-0.219138 0.0520601 0.108348 9.01515e-018 1 -4.17856e-017
-0.236666 0.0520601 0.108348 -3.04928e-017 1 2.65502e-017
-0.254193 0.0520601 0.108348 7.05731e-020 1 -5.91968e-017
-0.271722 0.0520601 0.108348 9.01513e-018 1 -4.18049e-017
-0.289249 0.0520601 0.108348 -3.56035e-032 1 -8.18176e-017
-0.306777 0.0520601 0.108348 7.05731e-020 1 -5.92016e-017
-0.324306 0.0520601 0.108348 -0.00485563 0.999988 -1.04628e-008
-0.341833 0.0520601 0.108348 -0.0409495 0.999161 -6.24687e-005
-0.359361 0.0514102 0.108348 -0.140865 0.990028 -0.00133493
-0.376239 0.0488131 0.107698 -0.367842 0.929845 -0.00896655
0.370318 0.0319343 0.108348 0.849274 0.527894 -0.0079019
-0.390522 0.0423216 0.105751 -0.735925 0.677036 0.00603297
0.374861 0.0195988 0.108348 0.963071 -0.269247 -1.43567e-006
-0.398961 0.0319332 0.101855 -0.95974 0.280886 -0.0017144
-0.398961 0.0195988 0.114839 -0.959725 -0.280937 0.00171524
0.370317 0.00921156 0.108348 0.901786 -0.432016 -0.0119671
0.357982 0.00271884 0.108348 0.47173 -0.881676 -0.0108992
0.341753 0.000121752 0.108348 0.166368 -0.986039 0.00699354
0.324225 -0.000526945 0.108348 0.04192 -0.999121 2.38221e-007
0.306697 -0.000526945 0.108348 0.00484695 -0.999988 -1.04434e-008
0.28917 -0.000526945 0.108348 -1.40862e-019 -1 -6.52976e-019
0.271641 -0.000526945 0.108348 -1.40862e-019 -1 6.52938e-019
0.254114 -0.000526945 0.108348 -0 -1 -0
0.236586 -0.000526945 0.108348 0 -1 0
0.219058 -0.000526945 0.108348 -1.40862e-019 -1 6.52938e-019
0.20153 -0.000526945 0.108348 4.7645e-019 -1 8.69035e-019
0.184003 -0.000526945 0.108348 2.06185e-020 -1 2.6748e-019
0.166474 -0.000526945 0.108348 -2.06186e-020 -1 2.67461e-019
0.148947 -0.000526945 0.108348 -4.13867e-019 -1 1.43856e-020
0.131419 -0.000526945 0.108348 -2.06186e-020 -1 -2.67442e-019
0.11389 -0.000526945 0.108348 1.06687e-019 -1 3.80866e-019
0.096363 -0.000526945 0.108348 2.40228e-019 -1 7.68332e-019
0.0788355 -0.000526945 0.108348 0 -1 0
0.0613069 -0.000526945 0.108348 -0 -1 -0
0.0437794 -0.000526945 0.108348 -0 -1 -0
0.0262519 -0.000526945 0.108348 0 -1 0
0.00872331 -0.000526945 0.108348 3.31904e-020 -1 -4.08285e-019
-0.00880416 -0.000526945 0.108348 -0 -1 -0
-0.0263316 -0.000526945 0.108348 0 -1 0
-0.0438591 -0.000526945 0.108348 -1.07033e-019 -1 -4.8977e-019
-0.0613877 -0.000526945 0.108348 -1.40169e-019 -1 -1.0882e-018
-0.0789152 -0.000526945 0.108348 6.54093e-019 -1 5.75436e-020
-0.0964427 -0.000526945 0.108348 1.40169e-019 -1 -1.08822e-018
-0.113971 -0.000526945 0.108348 2.06185e-020 -1 -2.6748e-019
-0.131499 -0.000526945 0.108348 3.30968e-034 -1 -6.0881e-019
-0.149026 -0.000526945 0.108348 1.40862e-019 -1 6.53089e-019
-0.166555 -0.000526945 0.108348 2.06185e-020 -1 -2.6748e-019
-0.184082 -0.000526945 0.108348 4.17866e-019 -1 7.68332e-019
-0.20161 -0.000526945 0.108348 0 -1 0
-0.219138 -0.000526945 0.108348 -3.23793e-020 -1 2.18197e-019
-0.236666 -0.000526945 0.108348 0 -1 0
-0.254193 -0.000526945 0.108348 1.40861e-019 -1 6.53239e-019
-0.271722 -0.000526945 0.108348 -1.40861e-019 -1 6.53202e-019
-0.289249 -0.000526945 0.108348 2.95758e-035 -1 -9.07402e-019
-0.306777 -0.000526945 0.108348 -1.40861e-019 -1 -6.53202e-019
-0.324306 -0.000526945 0.108348 -0.00484706 -0.999988 -1.04443e-008
-0.341833 -0.000526945 0.108348 -0.0409302 -0.999162 6.29385e-005
-0.359361 0.000121752 0.108348 -0.140958 -0.989989 0.00729581
-0.376239 0.00271884 0.108996 -0.367835 -0.929848 0.00896104
-0.390522 0.00921156 0.110944 -0.735952 -0.677007 -0.00603216
0.481194 0.849067 0.0919869 0.493131 0.863097 0.109021
0.464448 0.855593 0.0908889 0.27599 0.959485 0.0567254
0.44692 0.857773 0.090819 0.0969371 0.995132 0.0177809
0.429392 0.858258 0.090819 -0.034225 0.999367 -0.00973029
0.411864 0.856961 0.090819 -0.179847 0.982792 -0.0421294
0.496599 0.83516 0.0962401 0.734337 0.656876 0.171064
0.394855 0.852882 0.0903273 -0.378767 0.92114 -0.0896425
0.379841 0.84509 0.088348 -0.594285 0.79129 -0.143826
0.369935 0.834052 0.0841819 -0.749223 0.637015 -0.181319
0.361452 0.821738 0.0877738 -0.855717 0.475101 -0.205008
0.513708 0.80532 0.0923811 0.912453 0.34211 0.224477
0.354543 0.805273 0.0899938 -0.920896 0.316923 -0.226958
0.518426 0.788269 0.0910562 0.941236 0.248652 0.228577
0.35006 0.78813 0.0907216 -0.946014 0.222797 -0.235412
0.527257 0.770699 0.0732915 0.956142 0.180073 0.231011
0.52255 0.770699 0.0908201 0.955932 0.179664 0.232195
0.346377 0.770699 0.090819 -0.957441 0.169056 -0.233939
0.343618 0.753172 0.090819 -0.967008 0.120972 -0.224189
0.527257 0.735644 0.0908201 0.969184 0.063781 0.237936
0.341878 0.735699 0.0913153 -0.973342 0.0619292 -0.22084
0.527941 0.717977 0.0905187 0.971647 0.00387089 0.236404
0.341116 0.718408 0.0925817 -0.975866 -0.0132697 -0.217967
0.527863 0.700166 0.0888534 0.971313 -0.0593059 0.230292
0.342024 0.70139 0.0929015 -0.971186 -0.091033 -0.220249
0.52781 0.683243 0.0827641 0.967924 -0.123615 0.218729
0.343149 0.687469 0.0955008 -0.965509 -0.143594 -0.217192
0.52201 0.662292 0.0920098 0.952135 -0.20414 0.227523
0.347067 0.669085 0.0946138 -0.955203 -0.199954 -0.218187
0.517461 0.64494 0.0935742 0.929376 -0.293613 0.223723
0.354295 0.644785 0.0882196 -0.93388 -0.286337 -0.214196
0.515334 0.633644 0.0876236 0.902818 -0.372219 0.215345
0.359938 0.626752 0.0889153 -0.886254 -0.412798 -0.210123
0.507065 0.617335 0.0875824 0.828672 -0.524303 0.195984
0.364143 0.613699 0.098059 -0.821394 -0.530514 -0.209446
0.496537 0.604283 0.0937645 0.71513 -0.676968 0.174077
0.484472 0.593022 0.0900465 0.556928 -0.819747 0.133591
0.378334 0.598275 0.0958985 -0.650335 -0.741539 -0.164878
0.46561 0.584338 0.0866105 0.324656 -0.94233 0.0813163
0.447309 0.580382 0.0900958 0.14012 -0.989607 0.0323196
0.430444 0.579343 0.091682 -0.0357015 -0.999327 -0.00843492
0.413867 0.580989 0.091682 -0.216466 -0.97467 -0.0562157
0.396625 0.58717 0.0915926 -0.415588 -0.904391 -0.0967635
0.357982 0.0423216 0.090819 0.597026 0.802203 0.00548293
0.341753 0.0488131 0.090819 0.288422 0.957503 2.32392e-008
0.324225 0.0514102 0.090819 0.12961 0.991565 -3.95095e-007
0.306697 0.0520601 0.090819 0.033505 0.999439 8.37577e-009
0.28917 0.0520601 0.090819 0.00485563 0.999988 1.01539e-008
0.271641 0.0520601 0.090819 -6.88945e-018 1 2.67176e-017
0.254114 0.0520601 0.090819 3.04916e-017 1 -1.31631e-017
0.236586 0.0520601 0.090819 6.88945e-018 1 2.672e-017
0.219058 0.0520601 0.090819 -9.08466e-018 1 1.7452e-017
0.20153 0.0520601 0.090819 3.74934e-018 1 -1.59253e-017
0.184003 0.0520601 0.090819 -2.19521e-018 1 9.28495e-018
0.166474 0.0520601 0.090819 -6.88945e-018 1 2.67104e-017
0.148947 0.0520601 0.090819 6.09847e-017 1 -1.68459e-017
0.131419 0.0520601 0.090819 0 1 0
0.11389 0.0520601 0.090819 -5.25414e-020 1 -5.4548e-017
0.096363 0.0520601 0.090819 3.02372e-017 1 9.53795e-018
0.0788355 0.0520601 0.090819 -6.88945e-018 1 -2.67104e-017
0.0613069 0.0520601 0.090819 1.25821e-018 1 1.94559e-017
0.0437794 0.0520601 0.090819 1.53745e-017 1 6.7766e-018
0.0262519 0.0520601 0.090819 0 1 0
0.00872331 0.0520601 0.090819 -0 1 -0
-0.00880416 0.0520601 0.090819 4.15907e-017 1 1.23999e-017
-0.0263316 0.0520601 0.090819 -4.05782e-018 1 1.23982e-017
-0.0438591 0.0520601 0.090819 -8.97091e-018 1 -6.96451e-017
-0.0613877 0.0520601 0.090819 -0 1 -0
-0.0789152 0.0520601 0.090819 0 1 0
-0.0964427 0.0520601 0.090819 5.25413e-020 1 -5.45516e-017
-0.113971 0.0520601 0.090819 2.19521e-018 1 9.28495e-018
-0.131499 0.0520601 0.090819 1.65852e-032 1 2.36867e-017
