ply
format ascii 1.0
element vertex 809
property float x
property float y
property float z
property float nx
property float ny
property float nz
end_header
-0.155066 -0.130819 0.650121 -0.000467708 -0.182662 0.983176
-0.172525 -0.130819 0.650121 -0.000467624 -0.182662 0.983176
-0.189983 -0.130819 0.650121 -0.000467574 -0.182662 0.983176
-0.207442 -0.130819 0.650121 -0.000467554 -0.182662 0.983176
-0.224902 -0.130819 0.650121 -0.000467759 -0.182662 0.983176
-0.242361 -0.130819 0.650121 -0.000467668 -0.182662 0.983176
-0.25982 -0.130819 0.650121 -0.000467607 -0.182662 0.983176
-0.277279 -0.130819 0.650121 -0.000467588 -0.182662 0.983176
-0.294739 -0.130819 0.650121 -0.000467725 -0.182662 0.983176
-0.312198 -0.130819 0.650121 -0.000467673 -0.182662 0.983176
-0.329657 -0.130819 0.650121 -0.000467603 -0.182662 0.983176
-0.347116 -0.130819 0.650121 -0.000467585 -0.182662 0.983176
-0.364576 -0.130819 0.650121 -0.000467728 -0.182662 0.983176
-0.382035 -0.130819 0.650121 -0.000467686 -0.182662 0.983176
-0.399494 -0.130819 0.650121 -0.00046761 -0.182662 0.983176
-0.416953 -0.130819 0.650121 -0.00242852 -0.18241 0.98322
-0.434413 -0.130819 0.650121 -0.0177121 -0.198728 0.979895
-0.451872 -0.130819 0.649798 -0.0856329 -0.189985 0.978045
-0.468845 -0.130495 0.648278 -0.230522 -0.18668 0.954992
-0.483705 -0.129984 0.643716 -0.532333 -0.168184 0.82966
0.505109 -0.0958016 0.632153 0.600033 0.61132 0.515992
0.493938 -0.0915535 0.63273 0.379232 0.74125 0.553833
0.477927 -0.0894001 0.633049 0.134127 0.801851 0.582275
0.460532 -0.088786 0.633308 0.0409133 0.807249 0.588791
0.443073 -0.088786 0.633308 0.00863423 0.80205 0.597195
0.425614 -0.088786 0.633308 0.00203831 0.801606 0.597849
0.408154 -0.088786 0.633308 0.00203829 0.801606 0.59785
0.390695 -0.088786 0.633308 0.00203833 0.801606 0.59785
0.373236 -0.088786 0.633308 0.0020384 0.801606 0.597849
0.355778 -0.088786 0.633308 0.00203835 0.801606 0.597849
0.338318 -0.088786 0.633308 0.00203828 0.801606 0.59785
0.320859 -0.088786 0.633308 0.00203832 0.801606 0.59785
0.3034 -0.088786 0.633308 0.00203843 0.801606 0.597849
0.285941 -0.088786 0.633308 0.00203842 0.801606 0.597849
0.268481 -0.088786 0.633308 0.00203836 0.801606 0.59785
0.251022 -0.088786 0.633308 0.0020382 0.801606 0.59785
0.233563 -0.088786 0.633308 0.00203823 0.801606 0.597849
0.216104 -0.088786 0.633308 0.00203832 0.801606 0.597849
0.198644 -0.088786 0.633308 0.00203836 0.801606 0.59785
0.181185 -0.088786 0.633308 0.00203829 0.801606 0.59785
0.163726 -0.088786 0.633308 0.00203834 0.801606 0.59785
0.146267 -0.088786 0.633308 0.00203841 0.801606 0.597849
0.128808 -0.088786 0.633308 0.00203836 0.801606 0.597849
0.111348 -0.088786 0.633308 0.00203828 0.801606 0.59785
0.0938894 -0.088786 0.633308 0.00203833 0.801606 0.59785
0.0764305 -0.088786 0.633308 0.0020384 0.801606 0.597849
0.0589715 -0.088786 0.633308 0.00203836 0.801606 0.597849
0.0415116 -0.088786 0.633308 0.00203821 0.801606 0.59785
0.0240526 -0.088786 0.633308 0.00203823 0.801606 0.597849
0.00659371 -0.088786 0.633308 0.00203833 0.801606 0.597849
-0.0108652 -0.088786 0.633308 0.00203832 0.801606 0.597849
-0.0283252 -0.088786 0.633308 0.00203834 0.801606 0.59785
-0.0457841 -0.088786 0.633308 0.00203823 0.801606 0.597849
-0.063243 -0.088786 0.633308 0.00203833 0.801606 0.597849
-0.080702 -0.088786 0.633308 0.00203832 0.801606 0.597849
-0.0981619 -0.088786 0.633308 0.00203835 0.801606 0.59785
-0.115621 -0.088786 0.633308 0.00203828 0.801606 0.59785
-0.13308 -0.088786 0.633308 0.00203833 0.801606 0.59785
-0.150539 -0.088786 0.633308 0.0020384 0.801606 0.597849
-0.167998 -0.088786 0.633308 0.00203836 0.801606 0.597849
-0.185458 -0.088786 0.633308 0.00203828 0.801606 0.59785
-0.202917 -0.088786 0.633308 0.00203833 0.801606 0.59785
-0.220375 -0.088786 0.633308 0.00203843 0.801606 0.597849
-0.237834 -0.088786 0.633308 0.00203842 0.801606 0.597849
-0.255294 -0.088786 0.633308 0.00203834 0.801606 0.59785
-0.272753 -0.088786 0.633308 0.00203823 0.801606 0.597849
-0.290212 -0.088786 0.633308 0.00203832 0.801606 0.597849
-0.307671 -0.088786 0.633308 0.00203831 0.801606 0.597849
-0.325131 -0.088786 0.633308 0.00203833 0.801606 0.59785
-0.34259 -0.088786 0.633308 0.00203823 0.801606 0.597849
-0.360049 -0.088786 0.633308 0.00203832 0.801606 0.597849
-0.377508 -0.088786 0.633308 0.00203832 0.801606 0.597849
-0.394968 -0.088786 0.633308 0.00203836 0.801606 0.59785
-0.412427 -0.088786 0.633308 0.00176227 0.801617 0.597836
-0.429886 -0.088786 0.633308 -0.00940831 0.801522 0.597892
-0.447345 -0.0888667 0.633308 -0.0596895 0.799564 0.597608
-0.464594 -0.0897888 0.632726 -0.206028 0.783412 0.58636
-0.480211 -0.0930059 0.630559 -0.477465 0.714366 0.511574
0.507655 -0.104291 0.636971 0.64362 0.411621 0.64523
-0.492659 -0.101089 0.625225 -0.743247 0.528108 0.410713
0.50142 -0.115486 0.643716 0.532344 0.168196 0.82965
-0.495762 -0.115379 0.631142 -0.820788 0.21527 0.529119
0.504294 -0.130188 0.641666 0.605919 -0.218931 0.764808
-0.494068 -0.130081 0.634695 -0.785369 -0.15077 0.600387
0.505862 -0.141746 0.636541 0.631894 -0.489704 0.60075
0.494045 -0.144382 0.641391 0.389214 -0.517783 0.761848
0.477927 -0.145433 0.643687 0.164157 -0.553925 0.816222
0.460532 -0.145692 0.644301 0.0445846 -0.543027 0.838531
0.443073 -0.145692 0.644301 0.00712828 -0.55171 0.834006
0.425614 -0.145692 0.644301 0.000257831 -0.551707 0.834038
0.408154 -0.145692 0.644301 0.00025775 -0.551707 0.834038
0.390695 -0.145692 0.644301 0.000257778 -0.551707 0.834038
0.373236 -0.145692 0.644301 0.000257815 -0.551707 0.834038
0.355778 -0.145692 0.644301 0.000257815 -0.551707 0.834038
0.338318 -0.145692 0.644301 0.000257749 -0.551707 0.834038
0.320859 -0.145692 0.644301 0.000257777 -0.551707 0.834038
0.3034 -0.145692 0.644301 0.000257808 -0.551707 0.834038
0.285941 -0.145692 0.644301 0.000257822 -0.551707 0.834038
0.268481 -0.145692 0.644301 0.000257741 -0.551707 0.834038
0.251022 -0.145692 0.644301 0.000257762 -0.551707 0.834038
0.233563 -0.145692 0.644301 0.000257788 -0.551707 0.834038
0.216104 -0.145692 0.644301 0.000257811 -0.551707 0.834038
0.198644 -0.145692 0.644301 0.000257753 -0.551707 0.834038
0.181185 -0.145692 0.644301 0.000257758 -0.551707 0.834038
0.163726 -0.145692 0.644301 0.000257791 -0.551707 0.834038
0.146267 -0.145692 0.644301 0.000257824 -0.551707 0.834038
0.128808 -0.145692 0.644301 0.000257831 -0.551707 0.834038
0.111348 -0.145692 0.644301 0.00025775 -0.551707 0.834038
0.0938894 -0.145692 0.644301 0.000257779 -0.551707 0.834038
0.0764305 -0.145692 0.644301 0.000257814 -0.551707 0.834038
0.0589715 -0.145692 0.644301 0.000257815 -0.551707 0.834038
0.0415116 -0.145692 0.644301 0.00025773 -0.551707 0.834038
0.0240526 -0.145692 0.644301 0.000257764 -0.551707 0.834038
0.00659371 -0.145692 0.644301 0.000257788 -0.551707 0.834038
-0.0108652 -0.145692 0.644301 0.000257811 -0.551707 0.834038
-0.0283252 -0.145692 0.644301 0.000257753 -0.551707 0.834038
-0.0457841 -0.145692 0.644301 0.000257758 -0.551707 0.834038
-0.063243 -0.145692 0.644301 0.000257788 -0.551707 0.834038
-0.080702 -0.145692 0.644301 0.00025781 -0.551707 0.834038
-0.0981619 -0.145692 0.644301 0.000257753 -0.551707 0.834038
-0.115621 -0.145692 0.644301 0.000257757 -0.551707 0.834038
-0.13308 -0.145692 0.644301 0.000257791 -0.551707 0.834038
-0.150539 -0.145692 0.644301 0.000257825 -0.551707 0.834038
-0.167998 -0.145692 0.644301 0.000257831 -0.551707 0.834038
-0.185458 -0.145692 0.644301 0.00025775 -0.551707 0.834038
-0.202917 -0.145692 0.644301 0.000257779 -0.551707 0.834038
-0.220375 -0.145692 0.644301 0.000257806 -0.551707 0.834038
-0.237834 -0.145692 0.644301 0.00025782 -0.551707 0.834038
-0.255294 -0.145692 0.644301 0.000257741 -0.551707 0.834038
-0.272753 -0.145692 0.644301 0.000257763 -0.551707 0.834038
-0.290212 -0.145692 0.644301 0.000257787 -0.551707 0.834038
-0.307671 -0.145692 0.644301 0.000257811 -0.551707 0.834038
-0.325131 -0.145692 0.644301 0.000257751 -0.551707 0.834038
-0.34259 -0.145692 0.644301 0.000257756 -0.551707 0.834038
-0.360049 -0.145692 0.644301 0.000257789 -0.551707 0.834038
-0.377508 -0.145692 0.644301 0.000257814 -0.551707 0.834038
-0.394968 -0.145692 0.644301 0.000257755 -0.551707 0.834038
-0.412427 -0.145692 0.644301 -4.61168e-005 -0.551737 0.834018
-0.429886 -0.145692 0.644301 -0.0115335 -0.537639 0.843096
-0.447345 -0.145692 0.644221 -0.0595772 -0.546323 0.835453
-0.464546 -0.145174 0.643396 -0.180538 -0.546112 0.818027
-0.479735 -0.143738 0.641165 -0.43514 -0.512776 0.740077
0.511782 -0.11539 0.634695 0.785381 0.15075 0.600376
0.513476 -0.130091 0.631142 0.820787 -0.215253 0.529127
0.510372 -0.144382 0.625225 0.74324 -0.528114 0.410719
-0.48994 -0.141181 0.636971 -0.643596 -0.411642 0.64524
0.497924 -0.152465 0.630559 0.477453 -0.714377 0.511571
0.482307 -0.155682 0.632726 0.206023 -0.783422 0.586348
0.465059 -0.156605 0.633308 0.0596968 -0.799572 0.597596
0.447599 -0.156685 0.633308 0.00941182 -0.80153 0.597881
0.43014 -0.156685 0.633308 -0.00176161 -0.801624 0.597827
0.412681 -0.156685 0.633308 -0.00203758 -0.801613 0.59784
0.395222 -0.156685 0.633308 -0.00203754 -0.801613 0.59784
0.377762 -0.156685 0.633308 -0.00203761 -0.801613 0.59784
0.360303 -0.156685 0.633308 -0.00203766 -0.801613 0.59784
0.342844 -0.156685 0.633308 -0.00203757 -0.801613 0.59784
0.325385 -0.156685 0.633308 -0.00203753 -0.801613 0.59784
0.307925 -0.156685 0.633308 -0.0020376 -0.801613 0.59784
0.290467 -0.156685 0.633308 -0.00203766 -0.801613 0.59784
0.273008 -0.156685 0.633308 -0.00203758 -0.801613 0.59784
0.255549 -0.156685 0.633308 -0.00203753 -0.801613 0.59784
0.23809 -0.156685 0.633308 -0.0020376 -0.801613 0.59784
0.22063 -0.156685 0.633308 -0.00203757 -0.801613 0.59784
0.203171 -0.156685 0.633308 -0.00203758 -0.801613 0.59784
0.185712 -0.156685 0.633308 -0.00203748 -0.801613 0.59784
0.168253 -0.156685 0.633308 -0.00203759 -0.801613 0.59784
0.150793 -0.156685 0.633308 -0.00203767 -0.801613 0.59784
0.133334 -0.156685 0.633308 -0.00203768 -0.801613 0.59784
0.115875 -0.156685 0.633308 -0.00203757 -0.801613 0.59784
0.0984163 -0.156685 0.633308 -0.00203753 -0.801613 0.59784
0.0809563 -0.156685 0.633308 -0.00203761 -0.801613 0.59784
0.0634974 -0.156685 0.633308 -0.00203766 -0.801613 0.59784
0.0460385 -0.156685 0.633308 -0.00203758 -0.801613 0.59784
0.0285795 -0.156685 0.633308 -0.00203754 -0.801613 0.59784
0.0111206 -0.156685 0.633308 -0.00203761 -0.801613 0.59784
-0.00633937 -0.156685 0.633308 -0.00203757 -0.801613 0.59784
-0.0237983 -0.156685 0.633308 -0.00203758 -0.801613 0.59784
-0.0412572 -0.156685 0.633308 -0.00203748 -0.801613 0.59784
-0.0587161 -0.156685 0.633308 -0.00203759 -0.801613 0.59784
-0.0761761 -0.156685 0.633308 -0.00203757 -0.801613 0.59784
-0.093635 -0.156685 0.633308 -0.00203758 -0.801613 0.59784
-0.111094 -0.156685 0.633308 -0.00203748 -0.801613 0.59784
-0.128553 -0.156685 0.633308 -0.00203759 -0.801613 0.59784
-0.146013 -0.156685 0.633308 -0.00203768 -0.801613 0.59784
-0.163472 -0.156685 0.633308 -0.00203769 -0.801613 0.59784
-0.180931 -0.156685 0.633308 -0.00203758 -0.801613 0.59784
-0.19839 -0.156685 0.633308 -0.00203753 -0.801613 0.59784
-0.21585 -0.156685 0.633308 -0.00203761 -0.801613 0.59784
-0.233309 -0.156685 0.633308 -0.00203766 -0.801613 0.59784
-0.250767 -0.156685 0.633308 -0.00203758 -0.801613 0.59784
-0.268226 -0.156685 0.633308 -0.00203754 -0.801613 0.59784
-0.285685 -0.156685 0.633308 -0.00203761 -0.801613 0.59784
-0.303145 -0.156685 0.633308 -0.00203757 -0.801613 0.59784
-0.320604 -0.156685 0.633308 -0.00203758 -0.801613 0.59784
-0.338063 -0.156685 0.633308 -0.00203748 -0.801613 0.59784
-0.355522 -0.156685 0.633308 -0.00203759 -0.801613 0.59784
-0.372982 -0.156685 0.633308 -0.00203757 -0.801613 0.59784
-0.390441 -0.156685 0.633308 -0.00203758 -0.801613 0.59784
-0.4079 -0.156685 0.633308 -0.00203749 -0.801613 0.59784
-0.425359 -0.156685 0.633308 -0.00863787 -0.802056 0.597186
-0.442819 -0.156685 0.633308 -0.0409184 -0.807254 0.588784
-0.460213 -0.15607 0.633049 -0.134132 -0.80184 0.582289
-0.476223 -0.153917 0.63273 -0.379229 -0.741239 0.553849
-0.487395 -0.14967 0.632153 -0.600013 -0.611332 0.516001
0.504607 -0.0915535 0.620766 0.593088 0.739706 0.317932
0.490795 -0.0854883 0.618807 0.320437 0.901421 0.291135
0.474112 -0.082966 0.618435 0.122694 0.941655 0.31342
0.456652 -0.0823195 0.618435 0.0418063 0.943928 0.327494
0.439193 -0.0823195 0.618435 0.0136397 0.943331 0.331573
0.421734 -0.0823195 0.618435 0.00846906 0.943008 0.332662
0.404275 -0.0823195 0.618435 0.008469 0.943008 0.332662
0.386816 -0.0823195 0.618435 0.00846892 0.943008 0.332662
0.369356 -0.0823195 0.618435 0.00846884 0.943008 0.332662
0.351897 -0.0823195 0.618435 0.00846894 0.943008 0.332662
0.334438 -0.0823195 0.618435 0.00846893 0.943008 0.332662
0.316979 -0.0823195 0.618435 0.00846884 0.943008 0.332662
0.299519 -0.0823195 0.618435 0.00846883 0.943008 0.332662
0.28206 -0.0823195 0.618435 0.00846892 0.943008 0.332662
0.264601 -0.0823195 0.618435 0.00846911 0.943008 0.332662
0.247143 -0.0823195 0.618435 0.00846913 0.943008 0.332662
0.229683 -0.0823195 0.618435 0.00846899 0.943008 0.332662
0.212224 -0.0823195 0.618435 0.00846898 0.943008 0.332662
0.194765 -0.0823195 0.618435 0.00846919 0.943008 0.332662
0.177306 -0.0823195 0.618435 0.00846916 0.943008 0.332662
0.159847 -0.0823195 0.618435 0.00846892 0.943008 0.332662
0.142387 -0.0823195 0.618435 0.00846884 0.943008 0.332662
0.124928 -0.0823195 0.618435 0.00846899 0.943008 0.332662
0.107469 -0.0823195 0.618435 0.008469 0.943008 0.332662
0.0900101 -0.0823195 0.618435 0.00846892 0.943008 0.332662
0.0725501 -0.0823195 0.618435 0.00846883 0.943008 0.332662
0.0550912 -0.0823195 0.618435 0.00846893 0.943008 0.332662
0.0376323 -0.0823195 0.618435 0.00846893 0.943008 0.332662
0.0201733 -0.0823195 0.618435 0.008469 0.943008 0.332662
0.00271337 -0.0823195 0.618435 0.00846891 0.943008 0.332662
-0.0147456 -0.0823195 0.618435 0.00846894 0.943008 0.332662
-0.0322045 -0.0823195 0.618435 0.00846893 0.943008 0.332662
-0.0496634 -0.0823195 0.618435 0.008469 0.943008 0.332662
-0.0671234 -0.0823195 0.618435 0.00846891 0.943008 0.332662
-0.0845823 -0.0823195 0.618435 0.00846895 0.943008 0.332662
-0.102041 -0.0823195 0.618435 0.0084692 0.943008 0.332662
-0.1195 -0.0823195 0.618435 0.00846916 0.943008 0.332662
-0.136959 -0.0823195 0.618435 0.00846892 0.943008 0.332662
-0.154419 -0.0823195 0.618435 0.00846883 0.943008 0.332662
-0.171878 -0.0823195 0.618435 0.00846899 0.943008 0.332662
-0.189337 -0.0823195 0.618435 0.008469 0.943008 0.332662
-0.206796 -0.0823195 0.618435 0.00846892 0.943008 0.332662
-0.224256 -0.0823195 0.618435 0.00846883 0.943008 0.332662
-0.241715 -0.0823195 0.618435 0.00846893 0.943008 0.332662
-0.259174 -0.0823195 0.618435 0.00846894 0.943008 0.332662
-0.276633 -0.0823195 0.618435 0.00846901 0.943008 0.332662
-0.294093 -0.0823195 0.618435 0.00846891 0.943008 0.332662
-0.311551 -0.0823195 0.618435 0.00846895 0.943008 0.332662
-0.32901 -0.0823195 0.618435 0.00846894 0.943008 0.332662
-0.346469 -0.0823195 0.618435 0.008469 0.943008 0.332662
-0.363929 -0.0823195 0.618435 0.0084689 0.943008 0.332662
-0.381388 -0.0823195 0.618435 0.00846893 0.943008 0.332662
-0.398847 -0.0823195 0.618435 0.00846918 0.943008 0.332662
-0.416306 -0.0823195 0.618435 0.00661484 0.942986 0.332768
-0.433765 -0.0823195 0.618435 -0.0201631 0.944205 0.328741
-0.451225 -0.0826422 0.618435 -0.0985765 0.943165 0.317369
-0.468296 -0.0843566 0.617821 -0.274834 0.915611 0.293467
0.512322 -0.101733 0.626291 0.764313 0.502464 0.404172
-0.483751 -0.0897888 0.615428 -0.555256 0.791979 0.253892
-0.495455 -0.100038 0.609253 -0.813421 0.551255 0.185646
0.517373 -0.114879 0.620828 0.941685 0.172937 0.288655
-0.500403 -0.114927 0.616074 -0.948664 0.210353 0.236197
0.518116 -0.130543 0.616074 0.948667 -0.21033 0.236205
-0.499659 -0.130593 0.620828 -0.941681 -0.172956 0.288658
0.513169 -0.145433 0.609253 0.813407 -0.551273 0.185656
-0.494609 -0.143738 0.626291 -0.764314 -0.502471 0.404162
0.501465 -0.155682 0.615428 0.555262 -0.791974 0.253893
0.486009 -0.161115 0.617821 0.274818 -0.915615 0.293468
0.468938 -0.162828 0.618435 0.0985731 -0.943167 0.317362
0.451479 -0.163152 0.618435 0.0201686 -0.94421 0.328727
0.43402 -0.163152 0.618435 -0.00661317 -0.942989 0.33276
0.41656 -0.163152 0.618435 -0.00847267 -0.943011 0.332654
0.399102 -0.163152 0.618435 -0.00847276 -0.943011 0.332654
0.381643 -0.163152 0.618435 -0.00847276 -0.943011 0.332654
0.364184 -0.163152 0.618435 -0.00847267 -0.943011 0.332654
0.346724 -0.163152 0.618435 -0.00847275 -0.943011 0.332655
0.329265 -0.163152 0.618435 -0.00847284 -0.943011 0.332654
0.311806 -0.163152 0.618435 -0.00847283 -0.943011 0.332654
0.294347 -0.163152 0.618435 -0.00847266 -0.943011 0.332654
0.276887 -0.163152 0.618435 -0.00847275 -0.943011 0.332655
0.259428 -0.163152 0.618435 -0.00847299 -0.943011 0.332654
0.241969 -0.163152 0.618435 -0.00847303 -0.943011 0.332654
0.22451 -0.163152 0.618435 -0.00847277 -0.943011 0.332654
0.207051 -0.163152 0.618435 -0.00847274 -0.943011 0.332654
0.189591 -0.163152 0.618435 -0.00847282 -0.943011 0.332654
0.172132 -0.163152 0.618435 -0.00847276 -0.943011 0.332654
0.154673 -0.163152 0.618435 -0.00847276 -0.943011 0.332654
0.137214 -0.163152 0.618435 -0.00847266 -0.943011 0.332654
0.119755 -0.163152 0.618435 -0.00847267 -0.943011 0.332654
0.102296 -0.163152 0.618435 -0.00847276 -0.943011 0.332654
0.0848367 -0.163152 0.618435 -0.00847276 -0.943011 0.332654
0.0673777 -0.163152 0.618435 -0.00847266 -0.943011 0.332654
0.0499178 -0.163152 0.618435 -0.00847275 -0.943011 0.332655
0.0324588 -0.163152 0.618435 -0.00847299 -0.943011 0.332654
0.0149999 -0.163152 0.618435 -0.00847303 -0.943011 0.332654
-0.00245902 -0.163152 0.618435 -0.00847277 -0.943011 0.332654
-0.019918 -0.163152 0.618435 -0.00847274 -0.943011 0.332654
-0.0373779 -0.163152 0.618435 -0.00847283 -0.943011 0.332654
-0.0548369 -0.163152 0.618435 -0.00847276 -0.943011 0.332654
-0.0722958 -0.163152 0.618435 -0.00847277 -0.943011 0.332654
-0.0897547 -0.163152 0.618435 -0.00847274 -0.943011 0.332654
-0.107215 -0.163152 0.618435 -0.00847283 -0.943011 0.332654
-0.124674 -0.163152 0.618435 -0.00847276 -0.943011 0.332654
-0.142133 -0.163152 0.618435 -0.00847276 -0.943011 0.332654
-0.159591 -0.163152 0.618435 -0.00847266 -0.943011 0.332654
-0.177051 -0.163152 0.618435 -0.00847267 -0.943011 0.332654
-0.19451 -0.163152 0.618435 -0.00847276 -0.943011 0.332654
-0.211969 -0.163152 0.618435 -0.00847276 -0.943011 0.332654
-0.229428 -0.163152 0.618435 -0.00847267 -0.943011 0.332654
-0.246888 -0.163152 0.618435 -0.00847276 -0.943011 0.332655
-0.264347 -0.163152 0.618435 -0.00847299 -0.943011 0.332654
-0.281806 -0.163152 0.618435 -0.00847303 -0.943011 0.332654
-0.299265 -0.163152 0.618435 -0.00847277 -0.943011 0.332654
-0.316724 -0.163152 0.618435 -0.00847274 -0.943011 0.332654
-0.334184 -0.163152 0.618435 -0.00847284 -0.943011 0.332654
-0.351643 -0.163152 0.618435 -0.00847277 -0.943011 0.332654
-0.369102 -0.163152 0.618435 -0.00847277 -0.943011 0.332654
-0.386561 -0.163152 0.618435 -0.00847274 -0.943011 0.332654
-0.404021 -0.163152 0.618435 -0.00847282 -0.943011 0.332654
-0.42148 -0.163152 0.618435 -0.0136399 -0.943333 0.331566
-0.438938 -0.163152 0.618435 -0.0418103 -0.94393 0.327487
-0.456397 -0.162505 0.618435 -0.122694 -0.941658 0.313411
-0.473081 -0.159983 0.618807 -0.320428 -0.901423 0.291141
-0.486894 -0.153917 0.620766 -0.593121 -0.739677 0.31794
0.503792 -0.0894001 0.604758 0.592328 0.799247 0.101747
0.488984 -0.082966 0.602269 0.317903 0.94196 0.10793
0.472172 -0.0803798 0.601622 0.126931 0.984228 0.123223
0.454712 -0.0797322 0.601622 0.0395884 0.990323 0.133015
0.437253 -0.0797322 0.601622 0.00918182 0.990834 0.13477
0.419794 -0.0797322 0.601622 0.00292122 0.990883 0.134697
0.402335 -0.0797322 0.601622 0.0029211 0.990883 0.134697
0.384875 -0.0797322 0.601622 0.0029209 0.990883 0.134697
0.367416 -0.0797322 0.601622 0.00292102 0.990883 0.134697
0.349957 -0.0797322 0.601622 0.00292124 0.990883 0.134697
0.332499 -0.0797322 0.601622 0.00292114 0.990883 0.134697
0.315039 -0.0797322 0.601622 0.00292094 0.990883 0.134697
0.29758 -0.0797322 0.601622 0.00292107 0.990883 0.134697
0.280121 -0.0797322 0.601622 0.00292121 0.990883 0.134697
0.262662 -0.0797322 0.601622 0.00292113 0.990883 0.134697
0.245203 -0.0797322 0.601622 0.00292119 0.990883 0.134697
0.227743 -0.0797322 0.601622 0.00292105 0.990883 0.134697
0.210284 -0.0797322 0.601622 0.00292111 0.990883 0.134697
0.192825 -0.0797322 0.601622 0.00292106 0.990883 0.134697
0.175366 -0.0797322 0.601622 0.0029211 0.990883 0.134697
0.157906 -0.0797322 0.601622 0.0029209 0.990883 0.134697
0.140447 -0.0797322 0.601622 0.00292103 0.990883 0.134697
0.122988 -0.0797322 0.601622 0.00292122 0.990883 0.134697
0.105529 -0.0797322 0.601622 0.0029211 0.990883 0.134697
0.0880694 -0.0797322 0.601622 0.0029209 0.990883 0.134697
0.0706105 -0.0797322 0.601622 0.00292102 0.990883 0.134697
0.0531515 -0.0797322 0.601622 0.00292124 0.990883 0.134697
0.0356926 -0.0797322 0.601622 0.00292114 0.990883 0.134697
0.0182326 -0.0797322 0.601622 0.00292094 0.990883 0.134697
0.000773722 -0.0797322 0.601622 0.00292107 0.990883 0.134697
-0.0166852 -0.0797322 0.601622 0.00292124 0.990883 0.134697
-0.0341441 -0.0797322 0.601622 0.00292114 0.990883 0.134697
-0.0516041 -0.0797322 0.601622 0.00292094 0.990883 0.134697
-0.069063 -0.0797322 0.601622 0.00292107 0.990883 0.134697
-0.0865219 -0.0797322 0.601622 0.00292122 0.990883 0.134697
-0.103981 -0.0797322 0.601622 0.00292107 0.990883 0.134697
-0.12144 -0.0797322 0.601622 0.0029211 0.990883 0.134697
-0.1389 -0.0797322 0.601622 0.0029209 0.990883 0.134697
-0.156359 -0.0797322 0.601622 0.00292104 0.990883 0.134697
-0.173818 -0.0797322 0.601622 0.00292122 0.990883 0.134697
-0.191277 -0.0797322 0.601622 0.0029211 0.990883 0.134697
-0.208737 -0.0797322 0.601622 0.0029209 0.990883 0.134697
-0.226195 -0.0797322 0.601622 0.00292101 0.990883 0.134697
-0.243654 -0.0797322 0.601622 0.00292124 0.990883 0.134697
-0.261113 -0.0797322 0.601622 0.00292114 0.990883 0.134697
-0.278573 -0.0797322 0.601622 0.00292095 0.990883 0.134697
-0.296032 -0.0797322 0.601622 0.00292107 0.990883 0.134697
-0.313491 -0.0797322 0.601622 0.00292124 0.990883 0.134697
-0.33095 -0.0797322 0.601622 0.00292114 0.990883 0.134697
-0.34841 -0.0797322 0.601622 0.00292094 0.990883 0.134697
-0.365869 -0.0797322 0.601622 0.00292108 0.990883 0.134697
-0.383328 -0.0797322 0.601622 0.00292122 0.990883 0.134697
-0.400787 -0.0797322 0.601622 0.00292106 0.990883 0.134697
-0.418246 -0.0797322 0.601622 -0.00199517 0.990883 0.134707
-0.435706 -0.0797322 0.601622 -0.0291735 0.990677 0.133069
-0.453165 -0.0802981 0.601622 -0.119365 0.984569 0.127969
-0.470059 -0.0826422 0.600975 -0.312087 0.943434 0.111954
0.513945 -0.100297 0.611063 0.826164 0.537052 0.170377
-0.485174 -0.0888667 0.598389 -0.593206 0.801235 0.0782824
-0.496409 -0.0997794 0.591923 -0.832251 0.552372 0.0473538
0.519458 -0.114652 0.604209 0.977794 0.177881 0.110798
-0.501987 -0.114652 0.599036 -0.975803 0.203868 0.0790284
0.5197 -0.130819 0.599036 0.975801 -0.203872 0.0790432
-0.501744 -0.130819 0.604209 -0.977794 -0.177893 0.110786
0.514123 -0.145692 0.591923 0.832249 -0.552374 0.0473674
-0.496232 -0.145174 0.611063 -0.826164 -0.537052 0.170376
0.502888 -0.156605 0.598389 0.593207 -0.801234 0.0782924
0.487772 -0.162828 0.600975 0.312071 -0.943439 0.111958
0.470878 -0.165172 0.601622 0.119355 -0.98457 0.127966
0.453419 -0.165738 0.601622 0.0291756 -0.990678 0.133067
0.43596 -0.165738 0.601622 0.00200116 -0.990883 0.134708
0.418501 -0.165738 0.601622 -0.00292241 -0.990883 0.134697
0.401041 -0.165738 0.601622 -0.00292261 -0.990882 0.134697
0.383582 -0.165738 0.601622 -0.0029227 -0.990882 0.134697
0.366123 -0.165738 0.601622 -0.00292248 -0.990883 0.134697
0.348664 -0.165738 0.601622 -0.00292237 -0.990883 0.134697
0.331204 -0.165738 0.601622 -0.00292257 -0.990882 0.134697
0.313745 -0.165738 0.601622 -0.0029227 -0.990882 0.134697
0.296287 -0.165738 0.601622 -0.00292251 -0.990883 0.134697
0.278828 -0.165738 0.601622 -0.00292237 -0.990883 0.134697
0.261368 -0.165738 0.601622 -0.00292258 -0.990882 0.134697
0.243909 -0.165738 0.601622 -0.00292254 -0.990882 0.134697
0.22645 -0.165738 0.601622 -0.00292269 -0.990882 0.134697
0.208991 -0.165738 0.601622 -0.00292254 -0.990883 0.134697
0.191532 -0.165738 0.601622 -0.00292241 -0.990883 0.134697
0.174072 -0.165738 0.601622 -0.00292262 -0.990882 0.134697
0.156613 -0.165738 0.601622 -0.00292271 -0.990882 0.134697
0.139154 -0.165738 0.601622 -0.00292254 -0.990883 0.134697
0.121695 -0.165738 0.601622 -0.00292241 -0.990883 0.134697
0.104235 -0.165738 0.601622 -0.00292261 -0.990882 0.134697
0.0867763 -0.165738 0.601622 -0.00292271 -0.990882 0.134697
0.0693174 -0.165738 0.601622 -0.00292248 -0.990883 0.134697
0.0518585 -0.165738 0.601622 -0.00292237 -0.990883 0.134697
0.0343985 -0.165738 0.601622 -0.00292257 -0.990882 0.134697
0.0169396 -0.165738 0.601622 -0.00292253 -0.990882 0.134697
-0.000519377 -0.165738 0.601622 -0.00292269 -0.990882 0.134697
-0.0179783 -0.165738 0.601622 -0.00292254 -0.990883 0.134697
-0.0354372 -0.165738 0.601622 -0.00292241 -0.990883 0.134697
-0.0528972 -0.165738 0.601622 -0.00292261 -0.990882 0.134697
-0.0703561 -0.165738 0.601622 -0.00292271 -0.990882 0.134697
-0.0878151 -0.165738 0.601622 -0.00292254 -0.990883 0.134697
-0.105274 -0.165738 0.601622 -0.0029224 -0.990883 0.134697
-0.122734 -0.165738 0.601622 -0.00292261 -0.990882 0.134697
-0.140193 -0.165738 0.601622 -0.00292271 -0.990882 0.134697
-0.157652 -0.165738 0.601622 -0.00292253 -0.990883 0.134697
-0.175111 -0.165738 0.601622 -0.00292241 -0.990883 0.134697
-0.192571 -0.165738 0.601622 -0.00292261 -0.990882 0.134697
-0.21003 -0.165738 0.601622 -0.00292271 -0.990882 0.134697
-0.227489 -0.165738 0.601622 -0.00292248 -0.990883 0.134697
-0.244947 -0.165738 0.601622 -0.00292237 -0.990883 0.134697
-0.262407 -0.165738 0.601622 -0.00292257 -0.990882 0.134697
-0.279866 -0.165738 0.601622 -0.00292253 -0.990882 0.134697
-0.297325 -0.165738 0.601622 -0.00292268 -0.990882 0.134697
-0.314784 -0.165738 0.601622 -0.00292254 -0.990883 0.134697
-0.332243 -0.165738 0.601622 -0.0029224 -0.990883 0.134697
-0.349703 -0.165738 0.601622 -0.00292261 -0.990882 0.134697
-0.367162 -0.165738 0.601622 -0.00292272 -0.990882 0.134697
-0.384621 -0.165738 0.601622 -0.00292255 -0.990883 0.134697
-0.40208 -0.165738 0.601622 -0.00292241 -0.990883 0.134697
-0.41954 -0.165738 0.601622 -0.00918158 -0.990835 0.134767
-0.436999 -0.165738 0.601622 -0.0395857 -0.990324 0.133007
-0.454458 -0.165091 0.601622 -0.126925 -0.984229 0.123223
-0.471271 -0.162505 0.602269 -0.317896 -0.941962 0.107934
-0.486079 -0.15607 0.604758 -0.592358 -0.799223 0.101755
0.503211 -0.088786 0.587397 0.595093 0.803246 0.0256919
0.488338 -0.0823195 0.584809 0.325353 0.945056 0.0318667
0.471526 -0.0797322 0.584163 0.133452 0.990344 0.0375385
0.454066 -0.0790857 0.584163 0.0393688 0.998457 0.0391495
0.436607 -0.0790857 0.584163 0.00789041 0.999204 0.0390958
0.419148 -0.0790857 0.584163 0.00148006 0.999249 0.0387115
0.401688 -0.0790857 0.584163 0.00147994 0.999249 0.0387114
0.384229 -0.0790857 0.584163 0.00147992 0.999249 0.0387114
0.36677 -0.0790857 0.584163 0.00148 0.999249 0.0387114
0.349311 -0.0790857 0.584163 0.00148007 0.999249 0.0387115
0.331852 -0.0790857 0.584163 0.00148011 0.999249 0.0387115
0.314392 -0.0790857 0.584163 0.00147993 0.999249 0.0387114
0.296933 -0.0790857 0.584163 0.00147998 0.999249 0.0387114
0.279474 -0.0790857 0.584163 0.00148003 0.999249 0.0387115
0.262015 -0.0790857 0.584163 0.00148006 0.999249 0.0387115
0.244555 -0.0790857 0.584163 0.00147986 0.999249 0.0387114
0.227096 -0.0790857 0.584163 0.00147984 0.999249 0.0387114
0.209637 -0.0790857 0.584163 0.00148003 0.999249 0.0387115
0.192179 -0.0790857 0.584163 0.00148006 0.999249 0.0387115
0.174719 -0.0790857 0.584163 0.00147994 0.999249 0.0387114
0.15726 -0.0790857 0.584163 0.00147992 0.999249 0.0387114
0.139801 -0.0790857 0.584163 0.00148003 0.999249 0.0387115
0.122342 -0.0790857 0.584163 0.00148006 0.999249 0.0387115
0.104882 -0.0790857 0.584163 0.00147994 0.999249 0.0387114
0.0874228 -0.0790857 0.584163 0.00147992 0.999249 0.0387114
0.0699639 -0.0790857 0.584163 0.00148 0.999249 0.0387114
0.052505 -0.0790857 0.584163 0.00148007 0.999249 0.0387115
0.0350461 -0.0790857 0.584163 0.00148011 0.999249 0.0387115
0.0175861 -0.0790857 0.584163 0.00147993 0.999249 0.0387114
0.000127173 -0.0790857 0.584163 0.00147997 0.999249 0.0387114
-0.0173318 -0.0790857 0.584163 0.00148007 0.999249 0.0387115
-0.0347907 -0.0790857 0.584163 0.00148011 0.999249 0.0387115
-0.0522507 -0.0790857 0.584163 0.00147993 0.999249 0.0387114
-0.0697096 -0.0790857 0.584163 0.00147997 0.999249 0.0387114
-0.0871685 -0.0790857 0.584163 0.00148003 0.999249 0.0387115
-0.104627 -0.0790857 0.584163 0.00148006 0.999249 0.0387115
-0.122087 -0.0790857 0.584163 0.00147994 0.999249 0.0387114
-0.139546 -0.0790857 0.584163 0.00147992 0.999249 0.0387114
-0.157005 -0.0790857 0.584163 0.00148003 0.999249 0.0387115
-0.174464 -0.0790857 0.584163 0.00148006 0.999249 0.0387115
-0.191924 -0.0790857 0.584163 0.00147994 0.999249 0.0387114
-0.209383 -0.0790857 0.584163 0.00147992 0.999249 0.0387114
-0.226842 -0.0790857 0.584163 0.00148001 0.999249 0.0387114
-0.244301 -0.0790857 0.584163 0.00148007 0.999249 0.0387115
-0.26176 -0.0790857 0.584163 0.00148011 0.999249 0.0387115
-0.27922 -0.0790857 0.584163 0.00147993 0.999249 0.0387114
-0.296679 -0.0790857 0.584163 0.00147997 0.999249 0.0387114
-0.314138 -0.0790857 0.584163 0.00148007 0.999249 0.0387115
-0.331597 -0.0790857 0.584163 0.00148011 0.999249 0.0387115
-0.349057 -0.0790857 0.584163 0.00147993 0.999249 0.0387114
-0.366515 -0.0790857 0.584163 0.00147998 0.999249 0.0387114
-0.383974 -0.0790857 0.584163 0.00148003 0.999249 0.0387115
-0.401433 -0.0790857 0.584163 0.00148007 0.999249 0.0387115
-0.418893 -0.0790857 0.584163 -0.00470901 0.999239 0.0387219
-0.436352 -0.0790857 0.584163 -0.035847 0.998651 0.0375544
-0.453811 -0.0797322 0.584163 -0.130916 0.990822 0.0336476
-0.470624 -0.0823195 0.583516 -0.332626 0.942795 0.0223193
0.514204 -0.0997794 0.593862 0.831223 0.554466 0.0404302
-0.485497 -0.088786 0.58093 -0.598645 0.800865 0.0154467
-0.49649 -0.0997794 0.574464 -0.833766 0.552045 0.00896207
0.520024 -0.114652 0.586749 0.980686 0.193878 0.0258293
-0.50231 -0.114652 0.581577 -0.98003 0.197998 0.0184058
0.520024 -0.130819 0.581577 0.980028 -0.198004 0.018416
-0.50231 -0.130819 0.586749 -0.980686 -0.193878 0.0258195
0.514204 -0.145692 0.574464 0.833767 -0.552043 0.00896906
-0.49649 -0.145692 0.593862 -0.83122 -0.554472 0.0404255
0.503211 -0.156685 0.58093 0.598621 -0.800883 0.015454
0.488338 -0.163152 0.583516 0.332621 -0.942796 0.0223238
0.471526 -0.165738 0.584163 0.130918 -0.990822 0.0336559
0.454066 -0.166386 0.584163 0.0358542 -0.998651 0.0375629
0.436607 -0.166386 0.584163 0.00471735 -0.999239 0.0387297
0.419148 -0.166386 0.584163 -0.00147753 -0.999249 0.0387202
0.401688 -0.166386 0.584163 -0.00147771 -0.999249 0.0387203
0.384229 -0.166386 0.584163 -0.00147767 -0.999249 0.0387203
0.36677 -0.166386 0.584163 -0.0014776 -0.999249 0.0387202
0.349311 -0.166386 0.584163 -0.00147752 -0.999249 0.0387202
0.331852 -0.166386 0.584163 -0.00147754 -0.999249 0.0387202
0.314392 -0.166386 0.584163 -0.00147765 -0.999249 0.0387203
0.296933 -0.166386 0.584163 -0.00147763 -0.999249 0.0387203
0.279474 -0.166386 0.584163 -0.00147751 -0.999249 0.0387202
0.262015 -0.166386 0.584163 -0.00147754 -0.999249 0.0387202
0.244555 -0.166386 0.584163 -0.00147766 -0.999249 0.0387203
0.227096 -0.166386 0.584163 -0.00147763 -0.999249 0.0387203
0.209637 -0.166386 0.584163 -0.00147757 -0.999249 0.0387202
0.192179 -0.166386 0.584163 -0.00147753 -0.999249 0.0387202
0.174719 -0.166386 0.584163 -0.00147771 -0.999249 0.0387203
0.15726 -0.166386 0.584163 -0.00147767 -0.999249 0.0387203
0.139801 -0.166386 0.584163 -0.00147757 -0.999249 0.0387202
0.122342 -0.166386 0.584163 -0.00147753 -0.999249 0.0387202
0.104882 -0.166386 0.584163 -0.00147771 -0.999249 0.0387203
0.0874228 -0.166386 0.584163 -0.00147767 -0.999249 0.0387202
0.0699639 -0.166386 0.584163 -0.0014776 -0.999249 0.0387202
0.052505 -0.166386 0.584163 -0.00147752 -0.999249 0.0387202
0.0350461 -0.166386 0.584163 -0.00147754 -0.999249 0.0387202
0.0175861 -0.166386 0.584163 -0.00147766 -0.999249 0.0387203
0.000127173 -0.166386 0.584163 -0.00147763 -0.999249 0.0387203
-0.0173318 -0.166386 0.584163 -0.00147757 -0.999249 0.0387202
-0.0347907 -0.166386 0.584163 -0.00147753 -0.999249 0.0387202
-0.0522507 -0.166386 0.584163 -0.00147771 -0.999249 0.0387203
-0.0697096 -0.166386 0.584163 -0.00147767 -0.999249 0.0387203
-0.0871685 -0.166386 0.584163 -0.00147757 -0.999249 0.0387202
-0.104627 -0.166386 0.584163 -0.00147753 -0.999249 0.0387202
-0.122087 -0.166386 0.584163 -0.00147771 -0.999249 0.0387203
-0.139546 -0.166386 0.584163 -0.00147767 -0.999249 0.0387202
-0.157005 -0.166386 0.584163 -0.00147757 -0.999249 0.0387202
-0.174464 -0.166386 0.584163 -0.00147753 -0.999249 0.0387202
-0.191924 -0.166386 0.584163 -0.00147771 -0.999249 0.0387203
-0.209383 -0.166386 0.584163 -0.00147767 -0.999249 0.0387202
-0.226842 -0.166386 0.584163 -0.0014776 -0.999249 0.0387202
-0.244301 -0.166386 0.584163 -0.00147752 -0.999249 0.0387202
-0.26176 -0.166386 0.584163 -0.00147754 -0.999249 0.0387202
-0.27922 -0.166386 0.584163 -0.00147766 -0.999249 0.0387203
-0.296679 -0.166386 0.584163 -0.00147763 -0.999249 0.0387203
-0.314138 -0.166386 0.584163 -0.00147758 -0.999249 0.0387202
-0.331597 -0.166386 0.584163 -0.00147753 -0.999249 0.0387202
-0.349057 -0.166386 0.584163 -0.0014777 -0.999249 0.0387203
-0.366515 -0.166386 0.584163 -0.00147766 -0.999249 0.0387202
-0.383974 -0.166386 0.584163 -0.00147757 -0.999249 0.0387202
-0.401433 -0.166386 0.584163 -0.00147753 -0.999249 0.0387202
-0.418893 -0.166386 0.584163 -0.00789886 -0.999204 0.0391052
-0.436352 -0.166386 0.584163 -0.0393697 -0.998458 0.0391478
-0.453811 -0.165738 0.584163 -0.133438 -0.990346 0.037533
-0.470624 -0.163152 0.584809 -0.325338 -0.945061 0.0318674
-0.485497 -0.156685 0.587397 -0.595104 -0.803238 0.0256907
0.503211 -0.088786 0.569937 0.597787 0.801636 0.00552062
0.488338 -0.0823195 0.567351 0.330137 0.943892 0.00876738
0.471526 -0.0797322 0.566704 0.137328 0.990454 0.0118971
0.454066 -0.0790857 0.566704 0.0408165 0.999153 0.00527981
0.436607 -0.0790857 0.566704 0.00554922 0.999957 0.00745924
0.419148 -0.0790857 0.566704 -0.000434267 0.999984 0.00563342
0.401688 -0.0790857 0.566704 -6.72963e-005 0.999986 0.00537894
0.384229 -0.0790857 0.566704 -0.000434253 0.999984 0.00563342
0.36677 -0.0790857 0.566704 -0.000434273 0.999984 0.00563342
0.349311 -0.0790857 0.566704 -6.73336e-005 0.999986 0.00537892
0.331852 -0.0790857 0.566704 -0.000434281 0.999984 0.00563341
0.314392 -0.0790857 0.566704 -6.73171e-005 0.999986 0.00537891
0.296933 -0.0790857 0.566704 -6.73163e-005 0.999986 0.00537891
0.279474 -0.0790857 0.566704 -0.000434273 0.999984 0.00563342
0.262015 -0.0790857 0.566704 -0.000434267 0.999984 0.00563342
0.244555 -0.0790857 0.566704 -6.72967e-005 0.999986 0.00537894
0.227096 -0.0790857 0.566704 -0.000434254 0.999984 0.00563342
0.209637 -0.0790857 0.566704 -0.000434272 0.999984 0.00563342
0.192179 -0.0790857 0.566704 -0.000434267 0.999984 0.00563342
0.174719 -0.0790857 0.566704 -6.7297e-005 0.999986 0.00537894
0.15726 -0.0790857 0.566704 -6.7316e-005 0.999986 0.00537891
0.139801 -0.0790857 0.566704 -0.000434272 0.999984 0.00563342
0.122342 -0.0790857 0.566704 -0.000434267 0.999984 0.00563342
0.104882 -0.0790857 0.566704 -6.72971e-005 0.999986 0.00537894
0.0874228 -0.0790857 0.566704 -6.7316e-005 0.999986 0.00537891
0.0699639 -0.0790857 0.566704 -0.000434273 0.999984 0.00563342
0.052505 -0.0790857 0.566704 -6.73342e-005 0.999986 0.00537892
0.0350461 -0.0790857 0.566704 -0.000434281 0.999984 0.00563341
0.0175861 -0.0790857 0.566704 -6.73165e-005 0.999986 0.00537891
0.000127173 -0.0790857 0.566704 -6.73163e-005 0.999986 0.00537891
-0.0173318 -0.0790857 0.566704 -0.000434272 0.999984 0.00563342
-0.0347907 -0.0790857 0.566704 -0.000434281 0.999984 0.00563341
-0.0522507 -0.0790857 0.566704 -6.73167e-005 0.999986 0.00537891
-0.0697096 -0.0790857 0.566704 -0.000434253 0.999984 0.00563342
-0.0871685 -0.0790857 0.566704 -6.73338e-005 0.999986 0.00537892
-0.104627 -0.0790857 0.566704 -0.000434267 0.999984 0.00563342
-0.122087 -0.0790857 0.566704 -6.72967e-005 0.999986 0.00537894
-0.139546 -0.0790857 0.566704 -0.000434254 0.999984 0.00563342
-0.157005 -0.0790857 0.566704 -6.73344e-005 0.999986 0.00537892
-0.174464 -0.0790857 0.566704 -0.000434267 0.999984 0.00563342
-0.191924 -0.0790857 0.566704 -6.7297e-005 0.999986 0.00537894
-0.209383 -0.0790857 0.566704 -6.7316e-005 0.999986 0.00537891
-0.226842 -0.0790857 0.566704 -0.000434273 0.999984 0.00563342
-0.244301 -0.0790857 0.566704 -6.73342e-005 0.999986 0.00537892
-0.26176 -0.0790857 0.566704 -0.000434281 0.999984 0.00563341
-0.27922 -0.0790857 0.566704 -6.73163e-005 0.999986 0.00537891
-0.296679 -0.0790857 0.566704 -0.000434254 0.999984 0.00563342
-0.314138 -0.0790857 0.566704 -6.73336e-005 0.999986 0.00537892
-0.331597 -0.0790857 0.566704 -0.000434281 0.999984 0.00563341
-0.349057 -0.0790857 0.566704 -6.73173e-005 0.999986 0.00537891
-0.366515 -0.0790857 0.566704 -0.000434255 0.999984 0.00563342
-0.383974 -0.0790857 0.566704 -6.73346e-005 0.999986 0.00537892
-0.401433 -0.0790857 0.566704 -0.000434267 0.999984 0.00563342
-0.418893 -0.0790857 0.566704 -0.00593208 0.999964 0.00603423
-0.436352 -0.0790857 0.566704 -0.0409203 0.99916 0.00220687
-0.453811 -0.0797322 0.566704 -0.138413 0.990373 -0.00187084
-0.470624 -0.0823195 0.566057 -0.330561 0.943785 8.09579e-005
0.514204 -0.0997794 0.576403 0.833387 0.552655 0.00625301
-0.485497 -0.088786 0.56347 -0.598401 0.801195 -0.00141039
-0.49649 -0.0997794 0.557005 -0.833788 0.552085 0.000578743
0.520024 -0.114652 0.56929 0.980466 0.196651 0.00380459
-0.50231 -0.114652 0.564118 -0.980399 0.197011 0.00192735
0.520024 -0.130819 0.564118 0.980398 -0.197018 0.00193251
-0.50231 -0.130819 0.56929 -0.980467 -0.196644 0.00380068
0.514204 -0.145692 0.557005 0.833786 -0.552088 0.000578581
-0.49649 -0.145692 0.576403 -0.833387 -0.552655 0.00624935
0.503211 -0.156685 0.56347 0.598373 -0.801217 -0.00141182
0.488338 -0.163152 0.566057 0.330557 -0.943786 8.39345e-005
0.471526 -0.165738 0.566704 0.138421 -0.990372 -0.00186537
0.454066 -0.166386 0.566704 0.040924 -0.99916 0.00221574
0.436607 -0.166386 0.566704 0.00594164 -0.999964 0.006044
0.419148 -0.166386 0.566704 6.74262e-005 -0.999985 0.00538771
0.401688 -0.166386 0.566704 0.000434992 -0.999984 0.00564263
0.384229 -0.166386 0.566704 0.000434983 -0.999984 0.00564263
0.36677 -0.166386 0.566704 6.74367e-005 -0.999985 0.00538771
0.349311 -0.166386 0.566704 0.000434965 -0.999984 0.00564264
0.331852 -0.166386 0.566704 6.74071e-005 -0.999985 0.00538774
0.314392 -0.166386 0.566704 0.000434976 -0.999984 0.00564263
0.296933 -0.166386 0.566704 0.000434982 -0.999984 0.00564263
0.279474 -0.166386 0.566704 6.74258e-005 -0.999985 0.00538771
0.262015 -0.166386 0.566704 6.7407e-005 -0.999985 0.00538774
0.244555 -0.166386 0.566704 0.000434977 -0.999984 0.00564263
0.227096 -0.166386 0.566704 6.74438e-005 -0.999985 0.00538772
0.209637 -0.166386 0.566704 6.74261e-005 -0.999985 0.00538771
0.192179 -0.166386 0.566704 6.74266e-005 -0.999985 0.00538771
0.174719 -0.166386 0.566704 0.000434992 -0.999984 0.00564263
0.15726 -0.166386 0.566704 0.000434983 -0.999984 0.00564263
0.139801 -0.166386 0.566704 6.74262e-005 -0.999985 0.00538771
0.122342 -0.166386 0.566704 6.74265e-005 -0.999985 0.00538771
0.104882 -0.166386 0.566704 0.000434992 -0.999984 0.00564263
0.0874228 -0.166386 0.566704 0.000434983 -0.999984 0.00564263
0.0699639 -0.166386 0.566704 6.74371e-005 -0.999985 0.00538771
0.052505 -0.166386 0.566704 0.000434964 -0.999984 0.00564264
0.0350461 -0.166386 0.566704 6.74072e-005 -0.999985 0.00538774
0.0175861 -0.166386 0.566704 0.000434977 -0.999984 0.00564263
0.000127173 -0.166386 0.566704 0.000434983 -0.999984 0.00564263
-0.0173318 -0.166386 0.566704 6.74263e-005 -0.999985 0.00538771
-0.0347907 -0.166386 0.566704 6.74265e-005 -0.999985 0.00538771
-0.0522507 -0.166386 0.566704 0.000434992 -0.999984 0.00564263
-0.0697096 -0.166386 0.566704 6.74445e-005 -0.999985 0.00538772
-0.0871685 -0.166386 0.566704 0.000434964 -0.999984 0.00564264
-0.104627 -0.166386 0.566704 6.7426e-005 -0.999985 0.00538772
-0.122087 -0.166386 0.566704 0.000434992 -0.999984 0.00564263
-0.139546 -0.166386 0.566704 6.7444e-005 -0.999985 0.00538772
-0.157005 -0.166386 0.566704 0.000434964 -0.999984 0.00564264
-0.174464 -0.166386 0.566704 6.74266e-005 -0.999985 0.00538771
-0.191924 -0.166386 0.566704 0.000434992 -0.999984 0.00564263
-0.209383 -0.166386 0.566704 0.000434983 -0.999984 0.00564263
-0.226842 -0.166386 0.566704 6.74367e-005 -0.999985 0.00538771
-0.244301 -0.166386 0.566704 0.000434964 -0.999984 0.00564264
-0.26176 -0.166386 0.566704 6.74078e-005 -0.999985 0.00538774
-0.27922 -0.166386 0.566704 0.000434977 -0.999984 0.00564263
-0.296679 -0.166386 0.566704 6.74444e-005 -0.999985 0.00538772
-0.314138 -0.166386 0.566704 0.000434965 -0.999984 0.00564264
-0.331597 -0.166386 0.566704 6.74273e-005 -0.999985 0.00538771
-0.349057 -0.166386 0.566704 0.000434991 -0.999984 0.00564263
-0.366515 -0.166386 0.566704 6.7443e-005 -0.999985 0.00538772
-0.383974 -0.166386 0.566704 0.000434963 -0.999984 0.00564264
-0.401433 -0.166386 0.566704 6.74258e-005 -0.999985 0.00538772
-0.418893 -0.166386 0.566704 -0.00555846 -0.999957 0.00747151
-0.436352 -0.166386 0.566704 -0.0408252 -0.999152 0.00528838
-0.453811 -0.165738 0.566704 -0.137321 -0.990455 0.0118957
-0.470624 -0.163152 0.567351 -0.33012 -0.943898 0.00876337
-0.485497 -0.156685 0.569937 -0.597797 -0.801629 0.00552274
0.503211 -0.088786 0.552478 0.598352 0.801228 0.00302161
0.488338 -0.0823195 0.549892 0.330429 0.943821 0.00427105
0.471526 -0.0797322 0.549245 0.13803 0.990404 0.00692873
0.454066 -0.0790857 0.549245 0.040938 0.999162 6.29411e-005
0.436607 -0.0790857 0.549245 0.00484987 0.999988 -9.06134e-009
0.419148 -0.0790857 0.549245 1.32282e-017 1 7.68084e-018
0.401688 -0.0790857 0.549245 -2.88146e-018 1 6.31294e-017
0.384229 -0.0790857 0.549245 -3.25414e-017 1 -1.52642e-017
0.36677 -0.0790857 0.549245 -1.33432e-017 1 9.91238e-018
0.349311 -0.0790857 0.549245 5.36412e-017 1 1.22484e-017
0.331852 -0.0790857 0.549245 -2.88142e-018 1 -6.30118e-017
0.314392 -0.0790857 0.549245 -2.94845e-018 1 2.11803e-016
0.296933 -0.0790857 0.549245 6.79921e-017 1 -1.52969e-017
0.279474 -0.0790857 0.549245 6.81218e-017 1 -1.53612e-017
0.262015 -0.0790857 0.549245 -2.88142e-018 1 -6.31098e-017
0.244555 -0.0790857 0.549245 -1.38965e-017 1 -9.40444e-017
0.227096 -0.0790857 0.549245 0 1 0
0.209637 -0.0790857 0.549245 2.25335e-017 1 -1.53461e-017
0.192179 -0.0790857 0.549245 1.79298e-017 1 -7.98072e-017
0.174719 -0.0790857 0.549245 -1.38965e-017 1 -9.40346e-017
0.15726 -0.0790857 0.549245 -1.23051e-016 1 -1.53135e-017
0.139801 -0.0790857 0.549245 -7.1927e-017 1 -1.53412e-017
0.122342 -0.0790857 0.549245 -1.38965e-017 1 9.40346e-017
0.104882 -0.0790857 0.549245 -6.70416e-020 1 1.48786e-016
0.0874228 -0.0790857 0.549245 3.30552e-017 1 -1.53211e-017
0.0699639 -0.0790857 0.549245 1.45914e-016 1 -1.97528e-017
0.052505 -0.0790857 0.549245 5.31702e-017 1 -1.53323e-017
0.0350461 -0.0790857 0.549245 -1.80551e-017 1 9.891e-017
0.0175861 -0.0790857 0.549245 1.37503e-017 1 7.17491e-017
0.000127173 -0.0790857 0.549245 -1.73453e-016 1 -1.53294e-017
-0.0173318 -0.0790857 0.549245 -2.39719e-017 1 -1.53274e-017
-0.0347907 -0.0790857 0.549245 4.17636e-020 1 -6.36702e-018
-0.0522507 -0.0790857 0.549245 4.28393e-018 1 2.39747e-017
-0.0697096 -0.0790857 0.549245 7.19274e-017 1 -1.53412e-017
-0.0871685 -0.0790857 0.549245 -7.65181e-017 1 -1.53127e-017
-0.104627 -0.0790857 0.549245 1.38965e-017 1 -9.40248e-017
-0.122087 -0.0790857 0.549245 -1.79298e-017 1 -7.98219e-017
-0.139546 -0.0790857 0.549245 -1.27643e-016 1 -1.5342e-017
-0.157005 -0.0790857 0.549245 6.17094e-017 1 -1.53165e-017
-0.174464 -0.0790857 0.549245 -1.79298e-017 1 7.98072e-017
-0.191924 -0.0790857 0.549245 1.38965e-017 1 9.40346e-017
-0.209383 -0.0790857 0.549245 1.00455e-016 1 -1.53617e-017
-0.226842 -0.0790857 0.549245 3.33518e-018 1 9.91103e-018
-0.244301 -0.0790857 0.549245 1.337e-016 1 -1.53044e-017
-0.26176 -0.0790857 0.549245 2.8814e-018 1 6.29922e-017
-0.27922 -0.0790857 0.549245 1.38965e-017 1 9.40836e-017
-0.296679 -0.0790857 0.549245 -2.60962e-017 1 2.93569e-017
-0.314138 -0.0790857 0.549245 3.74377e-017 1 -2.55744e-017
-0.331597 -0.0790857 0.549245 1.39635e-017 1 5.46632e-017
-0.349057 -0.0790857 0.549245 2.94845e-018 1 -2.11729e-016
-0.366515 -0.0790857 0.549245 -2.60962e-017 1 2.93569e-017
-0.383974 -0.0790857 0.549245 -9.89937e-017 1 -1.52956e-017
-0.401433 -0.0790857 0.549245 2.88144e-018 1 6.31686e-017
-0.418893 -0.0790857 0.549245 -0.00484994 0.999988 -9.06216e-009
-0.436352 -0.0790857 0.549245 -0.040941 0.999162 -6.25098e-005
-0.453811 -0.0797322 0.549245 -0.137902 0.990445 -0.00121857
-0.470624 -0.0823195 0.548599 -0.33042 0.943824 -0.00427196
0.514204 -0.0997794 0.558944 0.833797 0.552071 -0.000162258
-0.485497 -0.088786 0.546011 -0.598371 0.801214 -0.00302211
-0.49649 -0.0997794 0.539545 -0.833799 0.552069 0.000162414
0.520024 -0.114652 0.551831 0.9804 0.197017 5.83089e-005
-0.50231 -0.114652 0.546658 -0.980402 0.197009 -5.81963e-005
0.520024 -0.130819 0.546658 0.9804 -0.197017 -5.836e-005
-0.50231 -0.130819 0.551831 -0.980402 -0.197009 5.81411e-005
0.514204 -0.145692 0.539545 0.833797 -0.552071 0.000162255
-0.49649 -0.145692 0.558944 -0.833799 -0.552069 -0.00016242
0.503211 -0.156685 0.546011 0.598342 -0.801235 -0.00302021
0.488338 -0.163152 0.548599 0.330418 -0.943825 -0.00427112
0.471526 -0.165738 0.549245 0.137908 -0.990444 -0.00122338
0.454066 -0.166386 0.549245 0.0409438 -0.999161 -6.243e-005
0.436607 -0.166386 0.549245 0.00485781 -0.999988 -9.07615e-009
0.419148 -0.166386 0.549245 -4.42642e-018 -1 -3.2969e-016
0.401688 -0.166386 0.549245 2.7793e-017 -1 1.8803e-016
0.384229 -0.166386 0.549245 1.80528e-016 -1 4.28552e-017
0.36677 -0.166386 0.549245 2.00167e-017 -1 2.25636e-016
0.349311 -0.166386 0.549245 2.26545e-017 -1 -1.74771e-016
0.331852 -0.166386 0.549245 5.76284e-018 -1 1.26024e-016
0.314392 -0.166386 0.549245 5.89689e-018 -1 -4.23605e-016
0.296933 -0.166386 0.549245 -1.35933e-016 -1 4.2857e-017
0.279474 -0.166386 0.549245 -4.93448e-016 -1 4.30046e-017
0.262015 -0.166386 0.549245 5.76283e-018 -1 1.2622e-016
0.244555 -0.166386 0.549245 2.7793e-017 -1 1.88089e-016
0.227096 -0.166386 0.549245 3.12389e-016 -1 4.29061e-017
0.209637 -0.166386 0.549245 -4.51185e-017 -1 4.29554e-017
0.192179 -0.166386 0.549245 1.34083e-019 -1 2.97572e-016
0.174719 -0.166386 0.549245 2.7793e-017 -1 1.88069e-016
0.15726 -0.166386 0.549245 2.46153e-016 -1 4.28902e-017
0.139801 -0.166386 0.549245 -4.88445e-016 -1 4.29611e-017
0.122342 -0.166386 0.549245 2.7793e-017 -1 -1.88069e-016
0.104882 -0.166386 0.549245 1.34083e-019 -1 -2.97572e-016
0.0874228 -0.166386 0.549245 -6.60591e-017 -1 4.29054e-017
0.0699639 -0.166386 0.549245 -2.91827e-016 -1 2.84965e-016
0.052505 -0.166386 0.549245 -1.06392e-016 -1 4.29279e-017
0.0350461 -0.166386 0.549245 3.61102e-017 -1 -1.9782e-016
0.0175861 -0.166386 0.549245 -2.75006e-017 -1 -1.43498e-016
0.000127173 -0.166386 0.549245 3.46958e-016 -1 4.2922e-017
-0.0173318 -0.166386 0.549245 -4.42028e-017 -1 4.29182e-017
-0.0347907 -0.166386 0.549245 -3.61102e-017 -1 1.97816e-016
-0.0522507 -0.166386 0.549245 -8.56785e-018 -1 -4.79493e-017
-0.0697096 -0.166386 0.549245 -1.43803e-016 -1 4.29455e-017
-0.0871685 -0.166386 0.549245 1.52985e-016 -1 4.28885e-017
-0.104627 -0.166386 0.549245 3.58596e-017 -1 -1.59629e-016
-0.122087 -0.166386 0.549245 3.58596e-017 -1 1.59644e-016
-0.139546 -0.166386 0.549245 2.55338e-016 -1 4.29472e-017
-0.157005 -0.166386 0.549245 -1.2347e-016 -1 4.28963e-017
-0.174464 -0.166386 0.549245 3.58596e-017 -1 -1.59614e-016
-0.191924 -0.166386 0.549245 -2.7927e-017 -1 1.09503e-016
-0.209383 -0.166386 0.549245 4.9335e-017 -1 4.29689e-017
-0.226842 -0.166386 0.549245 -6.66989e-018 -1 2.25636e-016
