ply
format ascii 1.0
element vertex 798
property float x
property float y
property float z
property float nx
property float ny
property float nz
end_header
-0.0965329 0.0133865 0.0768505 -0.00128248 0.999999 0.000167633
-0.113674 0.0133865 0.0768505 -0.0169232 0.999794 -0.0112338
-0.130817 0.0133865 0.0768505 0.00128184 0.999999 0.000168252
-0.147958 0.0133865 0.0768505 -0.00128192 0.999999 0.00016826
-0.165101 0.0133865 0.0768505 0.0169233 0.999794 -0.0112338
-0.182242 0.0133865 0.0768505 -0.00932344 0.999952 -0.00308082
-0.199383 0.0133865 0.0768505 -0.0169232 0.999794 -0.0112338
-0.216526 0.0133865 0.0768505 0.0169232 0.999794 -0.0112338
-0.233667 0.0133865 0.0768505 0.00932342 0.999952 -0.00308082
-0.250809 0.0133865 0.0768505 -0.0169232 0.999794 -0.0112338
-0.267951 0.0133865 0.0768505 0.0169271 0.999794 -0.0112333
-0.285093 0.0133865 0.0768505 -0.00128189 0.999999 0.000168253
-0.302235 0.0133865 0.0768505 0.0169234 0.999794 -0.0112338
-0.319376 0.0133865 0.0768505 0.00128254 0.999999 0.000167647
-0.336518 0.0133865 0.0768505 -0.0169233 0.999794 -0.0112338
-0.35366 0.0133865 0.0768505 -0.000168346 0.999999 -0.00128196
-0.370802 0.0133865 0.0768505 -0.0169272 0.999794 -0.0112333
-0.387944 0.0133865 0.0768505 -0.0178301 0.999831 0.00452893
-0.405085 0.0133865 0.0768505 -0.160533 0.98703 1.27527e-007
-0.422227 0.0127517 0.0768505 -0.115599 0.993176 0.0154657
-0.439369 0.0108475 0.0768505 -0.144445 0.989513 -0.000337424
-0.456511 0.00767266 0.0768505 -0.0878707 0.99612 -0.00485908
-0.495239 0.0165623 0.083199 0.957508 0.288292 -0.00811499
0.516762 0.00830849 0.0743104 -0.666581 0.745098 0.0223268
0.502795 0.00576842 0.0762157 -0.23128 0.972887 0.000980431
-0.473017 0.00576842 0.0774852 0.231262 0.972891 -0.000976908
-0.486985 0.00830849 0.0793894 0.651183 0.758483 0.025748
0.516762 0.0381491 0.0622481 0.698393 0.715709 0.00290615
0.502795 0.0444987 0.0603438 0.368107 0.929738 0.00919867
0.486288 0.0470388 0.059708 0.137135 0.990535 0.00579039
0.469146 0.0476736 0.059708 0.0416009 0.999087 -0.00975255
0.452004 0.0476736 0.059708 -0.00408227 0.999987 -0.00304188
0.434863 0.0476736 0.059708 0.0240696 0.999631 -0.0125849
0.41772 0.0476736 0.059708 -0.0125849 0.999631 -0.0240699
0.400579 0.0476736 0.059708 -0.0093239 0.999952 -0.00307636
0.383438 0.0476736 0.059708 0.0125851 0.999631 -0.0240699
0.366295 0.0476736 0.059708 -0.0112337 0.999794 -0.0169232
0.349154 0.0476736 0.059708 0.0112336 0.999794 -0.0169232
0.332011 0.0476736 0.059708 -0.0125849 0.999631 -0.0240699
0.31487 0.0476736 0.059708 0.0093238 0.999952 -0.00307638
0.297729 0.0476736 0.059708 0.0240698 0.999631 -0.0125849
0.280586 0.0476736 0.059708 -0.0240698 0.999631 -0.0125849
0.263445 0.0476736 0.059708 -0.0093238 0.999952 -0.00307638
0.246303 0.0476736 0.059708 0.0125849 0.999631 -0.0240699
0.229161 0.0476736 0.059708 -0.0112337 0.999794 -0.0169232
0.21202 0.0476736 0.059708 0.0112337 0.999794 -0.0169232
0.194877 0.0476736 0.059708 -0.012585 0.999631 -0.0240699
0.177736 0.0476736 0.059708 0.0093239 0.999952 -0.00307637
0.160594 0.0476736 0.059708 0.0125849 0.999631 -0.0240699
0.143452 0.0476736 0.059708 -0.0112336 0.999794 -0.0169232
0.12631 0.0476736 0.059708 0.0112337 0.999794 -0.0169232
0.109168 0.0476736 0.059708 -0.0125849 0.999631 -0.0240699
0.0920266 0.0476736 0.059708 0.0112337 0.999794 -0.0169221
0.0748852 0.0476736 0.059708 0.0125849 0.999631 -0.0240699
0.0577428 0.0476736 0.059708 -0.0125849 0.999631 -0.0240699
0.0406014 0.0476736 0.059708 -0.0112337 0.999794 -0.0169221
0.02346 0.0476736 0.059708 0.0125849 0.999631 -0.0240699
0.00631752 0.0476736 0.059708 -0.0112337 0.999794 -0.0169232
-0.0108239 0.0476736 0.059708 0.0112337 0.999794 -0.0169232
-0.0279663 0.0476736 0.059708 -0.0125849 0.999631 -0.0240699
-0.0451077 0.0476736 0.059708 0.00932394 0.999952 -0.00307637
-0.0622491 0.0476736 0.059708 0.0125849 0.999631 -0.0240699
-0.0793916 0.0476736 0.059708 -0.0240698 0.999631 -0.0125849
-0.0965329 0.0476736 0.059708 0.00932385 0.999952 -0.00307637
-0.113674 0.0476736 0.059708 0.0125849 0.999631 -0.0240699
-0.130817 0.0476736 0.059708 -0.0112337 0.999794 -0.0169232
-0.147958 0.0476736 0.059708 0.0112337 0.999794 -0.0169232
-0.165101 0.0476736 0.059708 -0.0125849 0.999631 -0.0240699
-0.182242 0.0476736 0.059708 0.0093239 0.999952 -0.00307637
-0.199383 0.0476736 0.059708 0.0240699 0.999631 -0.0125849
-0.216526 0.0476736 0.059708 -0.0240698 0.999631 -0.0125849
-0.233667 0.0476736 0.059708 -0.00932388 0.999952 -0.00307637
-0.250809 0.0476736 0.059708 0.0125849 0.999631 -0.0240699
-0.267951 0.0476736 0.059708 -0.0112336 0.999794 -0.0169232
-0.285093 0.0476736 0.059708 0.0112337 0.999794 -0.0169232
-0.302235 0.0476736 0.059708 -0.0125851 0.999631 -0.0240699
-0.319376 0.0476736 0.059708 -0.0112337 0.999794 -0.0169221
-0.336518 0.0476736 0.059708 0.0125849 0.999631 -0.0240699
-0.35366 0.0476736 0.059708 -0.0112337 0.999794 -0.0169232
-0.370802 0.0476736 0.059708 0.0112337 0.999794 -0.0169232
-0.387944 0.0476736 0.059708 -0.0125848 0.999631 -0.0240699
-0.405085 0.0476736 0.059708 0.00932385 0.999952 -0.00307637
-0.422227 0.0476736 0.059708 0.0179265 0.999772 -0.0115846
-0.439369 0.0476736 0.059708 -0.0450149 0.998982 -0.00299174
-0.456511 0.0470388 0.059708 -0.136103 0.990689 -0.00333737
-0.473018 0.0444987 0.0590732 -0.36812 0.929733 -0.0091996
0.525016 0.027991 0.0660576 0.947859 0.318274 0.0162839
-0.486986 0.0381491 0.057169 -0.698413 0.715689 -0.00290398
-0.495239 0.027991 0.0533594 -0.947845 0.318316 -0.0162778
0.525016 0.0165623 0.0533594 -0.957512 0.288278 0.00811727
0.486288 0.00767266 0.059708 0.0878687 0.99612 0.00485946
0.469146 0.0108475 0.059708 0.144434 0.989514 0.000331748
0.452004 0.0127517 0.059708 0.115606 0.993175 0.0154599
0.434863 0.0133865 0.059708 -0.0903847 0.995907 -1.97243e-006
0.41772 0.0133865 0.059708 0.0303538 0.999446 0.0136829
0.400579 0.0133865 0.059708 0.0093239 0.999952 0.00307636
0.383438 0.0133865 0.059708 -0.0125851 0.999631 0.0240699
0.366295 0.0133865 0.059708 0.0112337 0.999794 0.0169232
0.349154 0.0133865 0.059708 -0.0112336 0.999794 0.0169232
0.332011 0.0133865 0.059708 0.0125849 0.999631 0.0240699
0.31487 0.0133865 0.059708 -0.0093238 0.999952 0.00307638
0.297729 0.0133865 0.059708 -0.0240698 0.999631 0.0125849
0.280586 0.0133865 0.059708 0.0240698 0.999631 0.0125849
0.263445 0.0133865 0.059708 0.0093238 0.999952 0.00307638
0.246303 0.0133865 0.059708 -0.0125849 0.999631 0.0240699
0.229161 0.0133865 0.059708 0.0112337 0.999794 0.0169232
0.21202 0.0133865 0.059708 -0.0112337 0.999794 0.0169232
0.194877 0.0133865 0.059708 0.012585 0.999631 0.0240699
0.177736 0.0133865 0.059708 -0.0093239 0.999952 0.00307637
0.160594 0.0133865 0.059708 -0.0125849 0.999631 0.0240699
0.143452 0.0133865 0.059708 0.0112336 0.999794 0.0169232
0.12631 0.0133865 0.059708 -0.0112337 0.999794 0.0169232
0.109168 0.0133865 0.059708 0.0125849 0.999631 0.0240699
0.0920266 0.0133865 0.059708 -0.0112337 0.999794 0.0169221
0.0748852 0.0133865 0.059708 -0.0125849 0.999631 0.0240699
0.0577428 0.0133865 0.059708 0.0125849 0.999631 0.0240699
0.0406014 0.0133865 0.059708 0.0112337 0.999794 0.0169221
0.02346 0.0133865 0.059708 -0.0125849 0.999631 0.0240699
0.00631752 0.0133865 0.059708 0.0112337 0.999794 0.0169232
-0.0108239 0.0133865 0.059708 -0.0112337 0.999794 0.0169232
-0.0279663 0.0133865 0.059708 0.0125849 0.999631 0.0240699
-0.0451077 0.0133865 0.059708 -0.00932394 0.999952 0.00307637
-0.0622491 0.0133865 0.059708 -0.0125849 0.999631 0.0240699
-0.0793916 0.0133865 0.059708 0.0240698 0.999631 0.0125849
-0.0965329 0.0133865 0.059708 -0.00932385 0.999952 0.00307637
-0.113674 0.0133865 0.059708 -0.0125849 0.999631 0.0240699
-0.130817 0.0133865 0.059708 0.0112337 0.999794 0.0169232
-0.147958 0.0133865 0.059708 -0.0112337 0.999794 0.0169232
-0.165101 0.0133865 0.059708 0.0125849 0.999631 0.0240699
-0.182242 0.0133865 0.059708 -0.0093239 0.999952 0.00307637
-0.199383 0.0133865 0.059708 -0.0240699 0.999631 0.0125849
-0.216526 0.0133865 0.059708 0.0240698 0.999631 0.0125849
-0.233667 0.0133865 0.059708 0.00932388 0.999952 0.00307637
-0.250809 0.0133865 0.059708 -0.0125849 0.999631 0.0240699
-0.267951 0.0133865 0.059708 0.0112336 0.999794 0.0169232
-0.285093 0.0133865 0.059708 -0.0112337 0.999794 0.0169232
-0.302235 0.0133865 0.059708 0.0125851 0.999631 0.0240699
-0.319376 0.0133865 0.059708 0.0112337 0.999794 0.0169221
-0.336518 0.0133865 0.059708 -0.0125849 0.999631 0.0240699
-0.35366 0.0133865 0.059708 0.0112337 0.999794 0.0169232
-0.370802 0.0133865 0.059708 -0.0112337 0.999794 0.0169232
-0.387944 0.0133865 0.059708 -0.0178307 0.999831 0.00452418
-0.405085 0.0133865 0.059708 -0.160534 0.98703 -7.90571e-006
-0.422227 0.0127517 0.059708 -0.115599 0.993176 0.0154614
-0.439369 0.0108475 0.059708 -0.143859 0.989594 -0.00289107
-0.456511 0.00767266 0.059708 -0.0865354 0.996214 -0.00834756
-0.495239 0.0165623 0.0660576 0.957508 0.288292 -0.00811504
0.516762 0.00830849 0.057169 -0.666582 0.745098 0.0223278
0.502795 0.00576842 0.0590732 -0.231279 0.972887 0.000973551
-0.473017 0.00576842 0.0603438 0.231262 0.972891 -0.000975516
-0.486985 0.00830849 0.0622481 0.651186 0.758481 0.025751
0.516762 0.0381491 0.0451067 0.698393 0.715708 0.00290489
0.502795 0.0444987 0.0432014 0.368108 0.929738 0.00919813
0.486288 0.0470388 0.0425666 0.140973 0.989987 0.00729524
0.469146 0.0476736 0.0425666 0.0417589 0.999051 0.0123736
0.452004 0.0476736 0.0425666 -0.0179282 0.999772 0.0115874
0.434863 0.0476736 0.0425666 0.0169219 0.999794 0.0112337
0.41772 0.0476736 0.0425666 -0.0169222 0.999794 0.0112337
0.400579 0.0476736 0.0425666 -0.0120972 0.999914 0.00497677
0.383438 0.0476736 0.0425666 0.00307653 0.999952 0.00932392
0.366295 0.0476736 0.0425666 -0.0169261 0.999794 0.0112331
0.349154 0.0476736 0.0425666 0.016926 0.999794 0.0112332
0.332011 0.0476736 0.0425666 -0.0169221 0.999794 0.0112336
0.31487 0.0476736 0.0425666 0.0240719 0.999631 0.0125878
0.297729 0.0476736 0.0425666 0.016922 0.999794 0.0112337
0.280586 0.0476736 0.0425666 -0.016922 0.999794 0.0112337
0.263445 0.0476736 0.0425666 -0.0240719 0.999631 0.0125878
0.246303 0.0476736 0.0425666 0.0169221 0.999794 0.0112336
0.229161 0.0476736 0.0425666 -0.016926 0.999794 0.0112332
0.21202 0.0476736 0.0425666 0.0169261 0.999794 0.0112331
0.194877 0.0476736 0.0425666 -0.00307647 0.999952 0.00932391
0.177736 0.0476736 0.0425666 0.0120972 0.999914 0.00497676
0.160594 0.0476736 0.0425666 0.00307642 0.999952 0.00932392
0.143452 0.0476736 0.0425666 -0.016926 0.999794 0.0112332
0.12631 0.0476736 0.0425666 -0.000167713 0.999999 0.00128253
0.109168 0.0476736 0.0425666 -0.00307641 0.999952 0.00932392
0.0920266 0.0476736 0.0425666 0.0112329 0.999794 0.0169256
0.0748852 0.0476736 0.0425666 0.0169221 0.999794 0.0112337
0.0577428 0.0476736 0.0425666 -0.0169221 0.999794 0.0112337
0.0406014 0.0476736 0.0425666 -0.011233 0.999794 0.0169256
0.02346 0.0476736 0.0425666 0.0169221 0.999794 0.0112337
0.00631752 0.0476736 0.0425666 0.000167706 0.999999 0.00128253
-0.0108239 0.0476736 0.0425666 -0.000167699 0.999999 0.00128253
-0.0279663 0.0476736 0.0425666 -0.0169221 0.999794 0.0112337
-0.0451077 0.0476736 0.0425666 0.00932339 0.999952 0.00308042
-0.0622491 0.0476736 0.0425666 0.00307641 0.999952 0.00932392
-0.0793916 0.0476736 0.0425666 -0.0169221 0.999794 0.0112337
-0.0965329 0.0476736 0.0425666 0.024072 0.999631 0.0125878
-0.113674 0.0476736 0.0425666 0.0169221 0.999794 0.0112337
-0.130817 0.0476736 0.0425666 -0.016926 0.999794 0.0112332
-0.147958 0.0476736 0.0425666 -0.000167677 0.999999 0.00128253
-0.165101 0.0476736 0.0425666 -0.00307641 0.999952 0.00932392
-0.182242 0.0476736 0.0425666 0.024072 0.999631 0.0125878
-0.199383 0.0476736 0.0425666 0.0169221 0.999794 0.0112337
-0.216526 0.0476736 0.0425666 -0.016922 0.999794 0.0112337
-0.233667 0.0476736 0.0425666 -0.024072 0.999631 0.0125878
-0.250809 0.0476736 0.0425666 0.0169221 0.999794 0.0112337
-0.267951 0.0476736 0.0425666 -0.016926 0.999794 0.0112332
-0.285093 0.0476736 0.0425666 -0.000167713 0.999999 0.00128253
-0.302235 0.0476736 0.0425666 -0.00307653 0.999952 0.00932392
-0.319376 0.0476736 0.0425666 -0.0169256 0.999794 0.0112329
-0.336518 0.0476736 0.0425666 0.0169221 0.999794 0.0112336
-0.35366 0.0476736 0.0425666 0.000167713 0.999999 0.00128253
-0.370802 0.0476736 0.0425666 -0.000167713 0.999999 0.00128253
-0.387944 0.0476736 0.0425666 -0.016922 0.999794 0.0112337
-0.405085 0.0476736 0.0425666 0.0093233 0.999952 0.00308042
-0.422227 0.0476736 0.0425666 0.0179249 0.999772 0.0115884
-0.439369 0.0476736 0.0425666 -0.0415979 0.999087 0.00975776
-0.456511 0.0470388 0.0425666 -0.137128 0.990536 -0.00579082
-0.473018 0.0444987 0.0419319 -0.36812 0.929733 -0.00919967
0.525016 0.027991 0.0489151 0.947859 0.318273 0.0162857
-0.486986 0.0381491 0.0400276 -0.698413 0.715689 -0.00290533
-0.495239 0.027991 0.0362181 -0.947845 0.318315 -0.0162802
0.525016 0.0165623 0.0362181 -0.957512 0.288278 0.00811731
0.486288 0.00767266 0.0425666 0.0865335 0.996214 0.00834762
0.469146 0.0108475 0.0425666 0.143849 0.989595 0.00288627
0.452004 0.0127517 0.0425666 0.115604 0.993175 -0.015464
0.434863 0.0133865 0.0425666 -0.0903881 0.995907 4.36946e-009
0.41772 0.0133865 0.0425666 0.0303523 0.999446 -0.0136868
0.400579 0.0133865 0.0425666 0.0120972 0.999914 -0.00497677
0.383438 0.0133865 0.0425666 -0.00307653 0.999952 -0.00932392
0.366295 0.0133865 0.0425666 -0.000167713 0.999999 -0.00128253
0.349154 0.0133865 0.0425666 -0.016926 0.999794 -0.0112332
0.332011 0.0133865 0.0425666 0.0169221 0.999794 -0.0112336
0.31487 0.0133865 0.0425666 -0.0240719 0.999631 -0.0125878
0.297729 0.0133865 0.0425666 -0.016922 0.999794 -0.0112337
0.280586 0.0133865 0.0425666 0.016922 0.999794 -0.0112337
0.263445 0.0133865 0.0425666 0.0240719 0.999631 -0.0125878
0.246303 0.0133865 0.0425666 -0.0169221 0.999794 -0.0112336
0.229161 0.0133865 0.0425666 0.016926 0.999794 -0.0112332
0.21202 0.0133865 0.0425666 -0.0169261 0.999794 -0.0112331
0.194877 0.0133865 0.0425666 0.00307647 0.999952 -0.00932391
0.177736 0.0133865 0.0425666 -0.0120972 0.999914 -0.00497676
0.160594 0.0133865 0.0425666 -0.00307642 0.999952 -0.00932392
0.143452 0.0133865 0.0425666 0.016926 0.999794 -0.0112332
0.12631 0.0133865 0.0425666 0.000167713 0.999999 -0.00128253
0.109168 0.0133865 0.0425666 0.00307641 0.999952 -0.00932392
0.0920266 0.0133865 0.0425666 -0.0112329 0.999794 -0.0169256
0.0748852 0.0133865 0.0425666 -0.0169221 0.999794 -0.0112337
0.0577428 0.0133865 0.0425666 0.0169221 0.999794 -0.0112337
0.0406014 0.0133865 0.0425666 0.011233 0.999794 -0.0169256
0.02346 0.0133865 0.0425666 -0.0169221 0.999794 -0.0112337
0.00631752 0.0133865 0.0425666 0.0169261 0.999794 -0.0112332
-0.0108239 0.0133865 0.0425666 0.000167699 0.999999 -0.00128253
-0.0279663 0.0133865 0.0425666 0.0169221 0.999794 -0.0112337
-0.0451077 0.0133865 0.0425666 -0.00932339 0.999952 -0.00308042
-0.0622491 0.0133865 0.0425666 -0.00307641 0.999952 -0.00932392
-0.0793916 0.0133865 0.0425666 0.0169221 0.999794 -0.0112337
-0.0965329 0.0133865 0.0425666 -0.024072 0.999631 -0.0125878
-0.113674 0.0133865 0.0425666 -0.0169221 0.999794 -0.0112337
-0.130817 0.0133865 0.0425666 0.016926 0.999794 -0.0112332
-0.147958 0.0133865 0.0425666 0.000167677 0.999999 -0.00128253
-0.165101 0.0133865 0.0425666 0.00307641 0.999952 -0.00932392
-0.182242 0.0133865 0.0425666 -0.0120972 0.999914 -0.00497676
-0.199383 0.0133865 0.0425666 -0.0169221 0.999794 -0.0112337
-0.216526 0.0133865 0.0425666 0.016922 0.999794 -0.0112337
-0.233667 0.0133865 0.0425666 0.024072 0.999631 -0.0125878
-0.250809 0.0133865 0.0425666 -0.0169221 0.999794 -0.0112337
-0.267951 0.0133865 0.0425666 0.016926 0.999794 -0.0112332
-0.285093 0.0133865 0.0425666 -0.0169261 0.999794 -0.0112331
-0.302235 0.0133865 0.0425666 0.00307653 0.999952 -0.00932392
-0.319376 0.0133865 0.0425666 0.0169256 0.999794 -0.0112329
-0.336518 0.0133865 0.0425666 -0.0169221 0.999794 -0.0112336
-0.35366 0.0133865 0.0425666 0.0169261 0.999794 -0.0112332
-0.370802 0.0133865 0.0425666 0.000167713 0.999999 -0.00128253
-0.387944 0.0133865 0.0425666 -0.0178299 0.999831 -0.00452856
-0.405085 0.0133865 0.0425666 0.0903866 0.995907 4.37129e-009
-0.422227 0.0127517 0.0425666 -0.115598 0.993176 -0.0154655
-0.439369 0.0108475 0.0425666 -0.144444 0.989513 -0.000338236
-0.456511 0.00767266 0.0425666 -0.087871 0.99612 -0.00485892
-0.495239 0.0165623 0.0489151 0.957508 0.288293 -0.00811513
0.516762 0.00830849 0.0400276 -0.651195 0.758473 -0.0257452
0.502795 0.00576842 0.0419319 -0.231279 0.972887 0.000977572
-0.473017 0.00576842 0.0432014 0.231263 0.972891 -0.000978747
-0.486985 0.00830849 0.0451067 0.666571 0.745107 -0.0223222
0.516762 0.0381491 0.0279642 0.698392 0.71571 0.00290545
0.502795 0.0444987 0.02606 0.368107 0.929738 0.00919776
0.486288 0.0470388 0.0254252 0.13611 0.990688 0.00333721
0.469146 0.0476736 0.0254252 0.0417576 0.999051 0.0123673
0.452004 0.0476736 0.0254252 -0.00408228 0.999987 0.00304189
0.434863 0.0476736 0.0254252 0.0240697 0.999631 0.0125849
0.41772 0.0476736 0.0254252 -0.0240699 0.999631 0.012585
0.400579 0.0476736 0.0254252 -0.0093239 0.999952 0.00307637
0.383438 0.0476736 0.0254252 0.0125851 0.999631 0.0240699
0.366295 0.0476736 0.0254252 -0.0112337 0.999794 0.0169232
0.349154 0.0476736 0.0254252 0.0112336 0.999794 0.0169233
0.332011 0.0476736 0.0254252 -0.0240699 0.999631 0.0125849
0.31487 0.0476736 0.0254252 0.00932381 0.999952 0.00307639
0.297729 0.0476736 0.0254252 0.0240698 0.999631 0.0125849
0.280586 0.0476736 0.0254252 -0.0240698 0.999631 0.0125849
0.263445 0.0476736 0.0254252 -0.00932381 0.999952 0.00307639
0.246303 0.0476736 0.0254252 0.0240699 0.999631 0.0125849
0.229161 0.0476736 0.0254252 -0.0112337 0.999794 0.0169233
0.21202 0.0476736 0.0254252 0.0112337 0.999794 0.0169232
0.194877 0.0476736 0.0254252 -0.012585 0.999631 0.0240699
0.177736 0.0476736 0.0254252 0.00932391 0.999952 0.00307638
0.160594 0.0476736 0.0254252 0.0125849 0.999631 0.0240699
0.143452 0.0476736 0.0254252 -0.0112336 0.999794 0.0169232
0.12631 0.0476736 0.0254252 0.0112337 0.999794 0.0169233
0.109168 0.0476736 0.0254252 -0.0125849 0.999631 0.0240699
0.0920266 0.0476736 0.0254252 0.00932393 0.999952 0.00307638
0.0748852 0.0476736 0.0254252 0.0240699 0.999631 0.0125849
0.0577428 0.0476736 0.0254252 -0.0240699 0.999631 0.0125849
0.0406014 0.0476736 0.0254252 -0.00932395 0.999952 0.00307638
0.02346 0.0476736 0.0254252 0.0240699 0.999631 0.0125849
0.00631752 0.0476736 0.0254252 -0.0112337 0.999794 0.0169233
-0.0108239 0.0476736 0.0254252 0.0112337 0.999794 0.0169232
-0.0279663 0.0476736 0.0254252 -0.0240699 0.999631 0.0125849
-0.0451077 0.0476736 0.0254252 0.00932394 0.999952 0.00307638
-0.0622491 0.0476736 0.0254252 0.0125849 0.999631 0.0240699
-0.0793916 0.0476736 0.0254252 -0.0240699 0.999631 0.0125849
-0.0965329 0.0476736 0.0254252 0.00932386 0.999952 0.00307639
-0.113674 0.0476736 0.0254252 0.0240699 0.999631 0.0125849
-0.130817 0.0476736 0.0254252 -0.0112337 0.999794 0.0169232
-0.147958 0.0476736 0.0254252 0.0112337 0.999794 0.0169232
-0.165101 0.0476736 0.0254252 -0.0125849 0.999631 0.0240699
-0.182242 0.0476736 0.0254252 0.00932391 0.999952 0.00307638
-0.199383 0.0476736 0.0254252 0.0240699 0.999631 0.0125849
-0.216526 0.0476736 0.0254252 -0.0240698 0.999631 0.0125849
-0.233667 0.0476736 0.0254252 -0.00932388 0.999952 0.00307638
-0.250809 0.0476736 0.0254252 0.0240699 0.999631 0.0125849
-0.267951 0.0476736 0.0254252 -0.0112336 0.999794 0.0169233
-0.285093 0.0476736 0.0254252 0.0112337 0.999794 0.0169232
-0.302235 0.0476736 0.0254252 -0.0125851 0.999631 0.0240699
-0.319376 0.0476736 0.0254252 -0.0112337 0.999794 0.0169221
-0.336518 0.0476736 0.0254252 0.0240699 0.999631 0.0125849
-0.35366 0.0476736 0.0254252 -0.0112337 0.999794 0.0169233
-0.370802 0.0476736 0.0254252 0.0112337 0.999794 0.0169233
-0.387944 0.0476736 0.0254252 -0.0240698 0.999631 0.0125849
-0.405085 0.0476736 0.0254252 0.00932385 0.999952 0.00307638
-0.422227 0.0476736 0.0254252 0.0179265 0.999772 0.0115846
-0.439369 0.0476736 0.0254252 -0.0453288 0.998972 0.000402895
-0.456511 0.0470388 0.0254252 -0.137128 0.990536 -0.00579064
-0.473018 0.0444987 0.0247905 -0.36812 0.929733 -0.00919976
0.525016 0.027991 0.0317738 0.947859 0.318273 0.0162859
-0.486986 0.0381491 0.0228852 -0.698413 0.715689 -0.00290465
-0.495239 0.027991 0.0190756 -0.947845 0.318316 -0.0162765
0.525016 0.0165623 0.0190756 -0.957513 0.288277 0.00811764
0.486288 0.00767266 0.0254252 0.0865336 0.996214 0.00834737
0.469146 0.0108475 0.0254252 0.143849 0.989595 0.00289113
0.452004 0.0127517 0.0254252 0.115606 0.993175 -0.0154599
0.434863 0.0133865 0.0254252 -0.0903847 0.995907 1.99245e-006
0.41772 0.0133865 0.0254252 0.0303538 0.999446 -0.0136829
0.400579 0.0133865 0.0254252 0.0093239 0.999952 -0.00307637
0.383438 0.0133865 0.0254252 -0.0125851 0.999631 -0.0240699
0.366295 0.0133865 0.0254252 0.0112337 0.999794 -0.0169232
0.349154 0.0133865 0.0254252 -0.0112336 0.999794 -0.0169233
0.332011 0.0133865 0.0254252 0.0240699 0.999631 -0.0125849
0.31487 0.0133865 0.0254252 -0.00932381 0.999952 -0.00307639
0.297729 0.0133865 0.0254252 -0.0240698 0.999631 -0.0125849
0.280586 0.0133865 0.0254252 0.0240698 0.999631 -0.0125849
0.263445 0.0133865 0.0254252 0.00932381 0.999952 -0.00307639
0.246303 0.0133865 0.0254252 -0.0240699 0.999631 -0.0125849
0.229161 0.0133865 0.0254252 0.0112337 0.999794 -0.0169233
0.21202 0.0133865 0.0254252 -0.0112337 0.999794 -0.0169232
0.194877 0.0133865 0.0254252 0.012585 0.999631 -0.0240699
0.177736 0.0133865 0.0254252 -0.00932391 0.999952 -0.00307638
0.160594 0.0133865 0.0254252 -0.0125849 0.999631 -0.0240699
0.143452 0.0133865 0.0254252 0.0112336 0.999794 -0.0169232
0.12631 0.0133865 0.0254252 -0.0112337 0.999794 -0.0169233
0.109168 0.0133865 0.0254252 0.0125849 0.999631 -0.0240699
0.0920266 0.0133865 0.0254252 -0.00932393 0.999952 -0.00307638
0.0748852 0.0133865 0.0254252 -0.0240699 0.999631 -0.0125849
0.0577428 0.0133865 0.0254252 0.0240699 0.999631 -0.0125849
0.0406014 0.0133865 0.0254252 0.00932395 0.999952 -0.00307638
0.02346 0.0133865 0.0254252 -0.0240699 0.999631 -0.0125849
0.00631752 0.0133865 0.0254252 0.0112337 0.999794 -0.0169233
-0.0108239 0.0133865 0.0254252 -0.0112337 0.999794 -0.0169232
-0.0279663 0.0133865 0.0254252 0.0240699 0.999631 -0.0125849
-0.0451077 0.0133865 0.0254252 -0.00932394 0.999952 -0.00307638
-0.0622491 0.0133865 0.0254252 -0.0125849 0.999631 -0.0240699
-0.0793916 0.0133865 0.0254252 0.0240699 0.999631 -0.0125849
-0.0965329 0.0133865 0.0254252 -0.00932386 0.999952 -0.00307639
-0.113674 0.0133865 0.0254252 -0.0240699 0.999631 -0.0125849
-0.130817 0.0133865 0.0254252 0.0112337 0.999794 -0.0169232
-0.147958 0.0133865 0.0254252 -0.0112337 0.999794 -0.0169232
-0.165101 0.0133865 0.0254252 0.0125849 0.999631 -0.0240699
-0.182242 0.0133865 0.0254252 -0.00932391 0.999952 -0.00307638
-0.199383 0.0133865 0.0254252 -0.0240699 0.999631 -0.0125849
-0.216526 0.0133865 0.0254252 0.0240698 0.999631 -0.0125849
-0.233667 0.0133865 0.0254252 0.00932388 0.999952 -0.00307638
-0.250809 0.0133865 0.0254252 -0.0240699 0.999631 -0.0125849
-0.267951 0.0133865 0.0254252 0.0112336 0.999794 -0.0169233
-0.285093 0.0133865 0.0254252 -0.0112337 0.999794 -0.0169232
-0.302235 0.0133865 0.0254252 0.0125851 0.999631 -0.0240699
-0.319376 0.0133865 0.0254252 0.0112337 0.999794 -0.0169221
-0.336518 0.0133865 0.0254252 -0.0240699 0.999631 -0.0125849
-0.35366 0.0133865 0.0254252 0.0112337 0.999794 -0.0169233
-0.370802 0.0133865 0.0254252 -0.0112337 0.999794 -0.0169233
-0.387944 0.0133865 0.0254252 -0.0178307 0.999831 -0.00452419
-0.405085 0.0133865 0.0254252 0.0903832 0.995907 1.99271e-006
-0.422227 0.0127517 0.0254252 -0.115599 0.993176 -0.0154614
-0.439369 0.0108475 0.0254252 -0.144444 0.989513 -0.000332151
-0.456511 0.00767266 0.0254252 -0.0878708 0.99612 -0.00485928
-0.495239 0.0165623 0.0317738 0.957508 0.288293 -0.00811527
0.516762 0.00830849 0.0228852 -0.651196 0.758472 -0.0257469
0.502795 0.00576842 0.0247905 -0.23128 0.972887 0.000980232
-0.473017 0.00576842 0.02606 0.231262 0.972891 -0.000976284
-0.486985 0.00830849 0.0279642 0.666569 0.745109 -0.0223236
0.516762 0.0381491 0.0108228 0.698393 0.715709 0.00290572
0.502795 0.0444987 0.0089175 0.368108 0.929738 0.00919836
0.486288 0.0470388 0.00828276 0.137135 0.990535 0.0057904
0.469146 0.0476736 0.00828276 0.0416009 0.999087 -0.00975247
0.452004 0.0476736 0.00828276 -0.00408228 0.999987 -0.00304189
0.434863 0.0476736 0.00828276 0.0240696 0.999631 -0.0125849
0.41772 0.0476736 0.00828276 -0.0240699 0.999631 -0.012585
0.400579 0.0476736 0.00828276 -0.0093239 0.999952 -0.00307637
0.383438 0.0476736 0.00828276 0.0125851 0.999631 -0.0240699
0.366295 0.0476736 0.00828276 -0.0112337 0.999794 -0.0169232
0.349154 0.0476736 0.00828276 0.0112336 0.999794 -0.0169233
0.332011 0.0476736 0.00828276 -0.0240699 0.999631 -0.0125849
0.31487 0.0476736 0.00828276 0.00932381 0.999952 -0.00307638
0.297729 0.0476736 0.00828276 0.0240698 0.999631 -0.0125849
0.280586 0.0476736 0.00828276 -0.0240698 0.999631 -0.0125849
0.263445 0.0476736 0.00828276 -0.00932381 0.999952 -0.00307638
0.246303 0.0476736 0.00828276 0.0240699 0.999631 -0.0125849
0.229161 0.0476736 0.00828276 -0.0112337 0.999794 -0.0169233
0.21202 0.0476736 0.00828276 0.0112337 0.999794 -0.0169232
0.194877 0.0476736 0.00828276 -0.012585 0.999631 -0.0240699
0.177736 0.0476736 0.00828276 0.0093239 0.999952 -0.00307638
0.160594 0.0476736 0.00828276 0.0125849 0.999631 -0.0240699
0.143452 0.0476736 0.00828276 -0.0112336 0.999794 -0.0169232
0.12631 0.0476736 0.00828276 0.0112337 0.999794 -0.0169232
0.109168 0.0476736 0.00828276 -0.0125849 0.999631 -0.0240699
0.0920266 0.0476736 0.00828276 0.00932393 0.999952 -0.00307638
0.0748852 0.0476736 0.00828276 0.0240699 0.999631 -0.0125849
0.0577428 0.0476736 0.00828276 -0.0240699 0.999631 -0.0125849
0.0406014 0.0476736 0.00828276 -0.00932395 0.999952 -0.00307638
0.02346 0.0476736 0.00828276 0.0240699 0.999631 -0.0125849
0.00631752 0.0476736 0.00828276 -0.0112337 0.999794 -0.0169232
-0.0108239 0.0476736 0.00828276 0.0112337 0.999794 -0.0169232
-0.0279663 0.0476736 0.00828276 -0.0240699 0.999631 -0.0125849
-0.0451077 0.0476736 0.00828276 0.00932394 0.999952 -0.00307638
-0.0622491 0.0476736 0.00828276 0.0125849 0.999631 -0.0240699
-0.0793916 0.0476736 0.00828276 -0.0240699 0.999631 -0.0125849
-0.0965329 0.0476736 0.00828276 0.00932386 0.999952 -0.00307638
-0.113674 0.0476736 0.00828276 0.0240699 0.999631 -0.0125849
-0.130817 0.0476736 0.00828276 -0.0112337 0.999794 -0.0169232
-0.147958 0.0476736 0.00828276 0.0112337 0.999794 -0.0169232
-0.165101 0.0476736 0.00828276 -0.0125849 0.999631 -0.0240699
-0.182242 0.0476736 0.00828276 0.0093239 0.999952 -0.00307638
-0.199383 0.0476736 0.00828276 0.0240699 0.999631 -0.0125849
-0.216526 0.0476736 0.00828276 -0.0240698 0.999631 -0.0125849
-0.233667 0.0476736 0.00828276 -0.00932388 0.999952 -0.00307638
-0.250809 0.0476736 0.00828276 0.0240699 0.999631 -0.0125849
-0.267951 0.0476736 0.00828276 -0.0112336 0.999794 -0.0169233
-0.285093 0.0476736 0.00828276 0.0112337 0.999794 -0.0169232
-0.302235 0.0476736 0.00828276 -0.0125851 0.999631 -0.0240699
-0.319376 0.0476736 0.00828276 -0.0112337 0.999794 -0.0169221
-0.336518 0.0476736 0.00828276 0.0240699 0.999631 -0.0125849
-0.35366 0.0476736 0.00828276 -0.0112337 0.999794 -0.0169233
-0.370802 0.0476736 0.00828276 0.0112337 0.999794 -0.0169233
-0.387944 0.0476736 0.00828276 -0.0240698 0.999631 -0.0125849
-0.405085 0.0476736 0.00828276 0.00932385 0.999952 -0.00307637
-0.422227 0.0476736 0.00828276 0.0179265 0.999772 -0.0115846
-0.439369 0.0476736 0.00828276 -0.0450149 0.998982 -0.00299175
-0.456511 0.0470388 0.00828276 -0.136103 0.990689 -0.00333731
-0.473018 0.0444987 0.00764801 -0.36812 0.929733 -0.00919916
0.525016 0.027991 0.0146324 0.947859 0.318273 0.0162826
-0.486986 0.0381491 0.00574378 -0.698413 0.715689 -0.00290439
-0.495239 0.027991 0.00193422 -0.947845 0.318316 -0.0162799
0.525016 0.0165623 0.00193422 -0.957512 0.288278 0.00811756
0.486288 0.00767266 0.00828276 0.0878689 0.99612 0.00485939
0.469146 0.0108475 0.00828276 0.144434 0.989514 0.000331757
0.452004 0.0127517 0.00828276 0.115606 0.993175 0.0154599
0.434863 0.0133865 0.00828276 -0.0903847 0.995907 -1.99164e-006
0.41772 0.0133865 0.00828276 0.0303538 0.999446 0.0136829
0.400579 0.0133865 0.00828276 0.0093239 0.999952 0.00307637
0.383438 0.0133865 0.00828276 -0.0125851 0.999631 0.0240699
0.366295 0.0133865 0.00828276 0.0112337 0.999794 0.0169232
0.349154 0.0133865 0.00828276 -0.0112336 0.999794 0.0169233
0.332011 0.0133865 0.00828276 0.0240699 0.999631 0.0125849
0.31487 0.0133865 0.00828276 -0.00932381 0.999952 0.00307638
0.297729 0.0133865 0.00828276 -0.0240698 0.999631 0.0125849
0.280586 0.0133865 0.00828276 0.0240698 0.999631 0.0125849
0.263445 0.0133865 0.00828276 0.00932381 0.999952 0.00307638
0.246303 0.0133865 0.00828276 -0.0240699 0.999631 0.0125849
0.229161 0.0133865 0.00828276 0.0112337 0.999794 0.0169233
0.21202 0.0133865 0.00828276 -0.0112337 0.999794 0.0169232
0.194877 0.0133865 0.00828276 0.012585 0.999631 0.0240699
0.177736 0.0133865 0.00828276 -0.0093239 0.999952 0.00307638
0.160594 0.0133865 0.00828276 -0.0125849 0.999631 0.0240699
0.143452 0.0133865 0.00828276 0.0112336 0.999794 0.0169232
0.12631 0.0133865 0.00828276 -0.0112337 0.999794 0.0169232
0.109168 0.0133865 0.00828276 0.0125849 0.999631 0.0240699
0.0920266 0.0133865 0.00828276 -0.00932393 0.999952 0.00307638
0.0748852 0.0133865 0.00828276 -0.0240699 0.999631 0.0125849
0.0577428 0.0133865 0.00828276 0.0240699 0.999631 0.0125849
0.0406014 0.0133865 0.00828276 0.00932395 0.999952 0.00307638
0.02346 0.0133865 0.00828276 -0.0240699 0.999631 0.0125849
0.00631752 0.0133865 0.00828276 0.0112337 0.999794 0.0169232
-0.0108239 0.0133865 0.00828276 -0.0112337 0.999794 0.0169232
-0.0279663 0.0133865 0.00828276 0.0240699 0.999631 0.0125849
-0.0451077 0.0133865 0.00828276 -0.00932394 0.999952 0.00307638
-0.0622491 0.0133865 0.00828276 -0.0125849 0.999631 0.0240699
-0.0793916 0.0133865 0.00828276 0.0240699 0.999631 0.0125849
-0.0965329 0.0133865 0.00828276 -0.00932386 0.999952 0.00307638
-0.113674 0.0133865 0.00828276 -0.0240699 0.999631 0.0125849
-0.130817 0.0133865 0.00828276 0.0112337 0.999794 0.0169232
-0.147958 0.0133865 0.00828276 -0.0112337 0.999794 0.0169232
-0.165101 0.0133865 0.00828276 0.0125849 0.999631 0.0240699
-0.182242 0.0133865 0.00828276 -0.0093239 0.999952 0.00307638
-0.199383 0.0133865 0.00828276 -0.0240699 0.999631 0.0125849
-0.216526 0.0133865 0.00828276 0.0240698 0.999631 0.0125849
-0.233667 0.0133865 0.00828276 0.00932388 0.999952 0.00307638
-0.250809 0.0133865 0.00828276 -0.0240699 0.999631 0.0125849
-0.267951 0.0133865 0.00828276 0.0112336 0.999794 0.0169233
-0.285093 0.0133865 0.00828276 -0.0112337 0.999794 0.0169232
-0.302235 0.0133865 0.00828276 0.0125851 0.999631 0.0240699
-0.319376 0.0133865 0.00828276 0.0112337 0.999794 0.0169221
-0.336518 0.0133865 0.00828276 -0.0240699 0.999631 0.0125849
-0.35366 0.0133865 0.00828276 0.0112337 0.999794 0.0169233
-0.370802 0.0133865 0.00828276 -0.0112337 0.999794 0.0169233
-0.387944 0.0133865 0.00828276 -0.0178307 0.999831 0.00452419
-0.405085 0.0133865 0.00828276 -0.160534 0.98703 -7.89009e-006
-0.422227 0.0127517 0.00828276 -0.115599 0.993176 0.0154614
-0.439369 0.0108475 0.00828276 -0.143859 0.989594 -0.00289091
-0.456511 0.00767266 0.00828276 -0.0865353 0.996214 -0.00834756
-0.495239 0.0165623 0.0146324 0.957508 0.288292 -0.00811535
0.516762 0.00830849 0.00574378 -0.651194 0.758474 -0.0257457
0.502795 0.00576842 0.00764801 -0.231278 0.972887 0.000975477
-0.473017 0.00576842 0.0089175 0.231264 0.972891 -0.000981063
-0.486985 0.00830849 0.0108228 0.651186 0.758482 0.0257506
0.516762 0.0381491 -0.00631964 0.698392 0.715709 0.00290639
0.502795 0.0444987 -0.00822388 0.368108 0.929738 0.00919827
0.486288 0.0470388 -0.00885863 0.140873 0.990027 0.00133379
0.469146 0.0476736 -0.00885863 0.0417579 0.999051 0.0123724
0.452004 0.0476736 -0.00885863 -0.0179282 0.999772 -0.0115874
0.434863 0.0476736 -0.00885863 0.0169219 0.999794 -0.0112337
0.41772 0.0476736 -0.00885863 -0.0169222 0.999794 -0.0112337
0.400579 0.0476736 -0.00885863 -0.0120972 0.999914 -0.0049768
0.383438 0.0476736 -0.00885863 0.00307653 0.999952 0.00932396
0.366295 0.0476736 -0.00885863 0.000167714 0.999999 -0.00128256
0.349154 0.0476736 -0.00885863 0.016926 0.999794 -0.0112332
0.332011 0.0476736 -0.00885863 -0.0169221 0.999794 -0.0112337
0.31487 0.0476736 -0.00885863 0.0240719 0.999631 0.0125878
0.297729 0.0476736 -0.00885863 0.016922 0.999794 -0.0112337
0.280586 0.0476736 -0.00885863 -0.016922 0.999794 -0.0112337
0.263445 0.0476736 -0.00885863 -0.0240719 0.999631 -0.0125878
0.246303 0.0476736 -0.00885863 0.0169221 0.999794 -0.0112337
0.229161 0.0476736 -0.00885863 -0.016926 0.999794 -0.0112332
0.21202 0.0476736 -0.00885863 0.0169261 0.999794 -0.0112332
0.194877 0.0476736 -0.00885863 -0.00307647 0.999952 0.00932396
0.177736 0.0476736 -0.00885863 0.024072 0.999631 -0.0125878
0.160594 0.0476736 -0.00885863 0.00307641 0.999952 -0.00932395
0.143452 0.0476736 -0.00885863 -0.016926 0.999794 -0.0112332
0.12631 0.0476736 -0.00885863 -0.000167714 0.999999 -0.00128256
0.109168 0.0476736 -0.00885863 -0.00307641 0.999952 0.00932396
0.0920266 0.0476736 -0.00885863 0.0240721 0.999631 0.0125878
0.0748852 0.0476736 -0.00885863 0.0169221 0.999794 -0.0112337
0.0577428 0.0476736 -0.00885863 -0.0169221 0.999794 -0.0112337
0.0406014 0.0476736 -0.00885863 -0.00932339 0.999952 -0.00308045
0.02346 0.0476736 -0.00885863 0.0169221 0.999794 -0.0112337
0.00631752 0.0476736 -0.00885863 0.000167707 0.999999 -0.00128256
-0.0108239 0.0476736 -0.00885863 -0.0001677 0.999999 -0.00128256
-0.0279663 0.0476736 -0.00885863 -0.0169221 0.999794 -0.0112337
-0.0451077 0.0476736 -0.00885863 0.00932338 0.999952 -0.00308045
-0.0622491 0.0476736 -0.00885863 0.00307641 0.999952 -0.00932395
-0.0793916 0.0476736 -0.00885863 -0.0169221 0.999794 -0.0112337
-0.0965329 0.0476736 -0.00885863 0.024072 0.999631 -0.0125878
-0.113674 0.0476736 -0.00885863 0.0169221 0.999794 -0.0112337
-0.130817 0.0476736 -0.00885863 -0.016926 0.999794 -0.0112332
-0.147958 0.0476736 -0.00885863 -0.000167678 0.999999 -0.00128256
-0.165101 0.0476736 -0.00885863 -0.00307641 0.999952 -0.00932394
-0.182242 0.0476736 -0.00885863 0.024072 0.999631 -0.0125878
-0.199383 0.0476736 -0.00885863 0.0169221 0.999794 -0.0112337
-0.216526 0.0476736 -0.00885863 -0.016922 0.999794 -0.0112337
-0.233667 0.0476736 -0.00885863 -0.024072 0.999631 -0.0125878
-0.250809 0.0476736 -0.00885863 0.0169221 0.999794 -0.0112337
-0.267951 0.0476736 -0.00885863 -0.016926 0.999794 -0.0112332
-0.285093 0.0476736 -0.00885863 -0.000167714 0.999999 -0.00128256
-0.302235 0.0476736 -0.00885863 -0.00307653 0.999952 0.00932396
-0.319376 0.0476736 -0.00885863 0.000167728 0.999999 -0.00128243
-0.336518 0.0476736 -0.00885863 0.0169221 0.999794 -0.0112337
-0.35366 0.0476736 -0.00885863 0.000167714 0.999999 -0.00128256
-0.370802 0.0476736 -0.00885863 0.0169261 0.999794 -0.0112332
-0.387944 0.0476736 -0.00885863 -0.016922 0.999794 -0.0112337
-0.405085 0.0476736 -0.00885863 0.0093233 0.999952 -0.00308044
-0.422227 0.0476736 -0.00885863 0.0179249 0.999772 0.0115885
-0.439369 0.0476736 -0.00885863 -0.0415989 0.999087 0.0097566
-0.456511 0.0470388 -0.00885863 -0.136103 0.990689 -0.00333705
-0.473018 0.0444987 -0.00949337 -0.36812 0.929733 -0.00919953
0.525016 0.027991 -0.00251009 0.947859 0.318272 0.0162863
-0.486986 0.0381491 -0.0113987 -0.698414 0.715688 -0.00290383
-0.495239 0.027991 -0.0152072 -0.947845 0.318316 -0.0162797
0.525016 0.0165623 -0.0152072 -0.957512 0.288278 0.00811741
0.486288 0.00767266 -0.00885863 0.0878691 0.99612 0.00485902
0.469146 0.0108475 -0.00885863 0.144434 0.989514 0.000337882
0.452004 0.0127517 -0.00885863 0.115604 0.993175 -0.015464
0.434863 0.0133865 -0.00885863 -0.0903881 0.995907 1.25633e-008
0.41772 0.0133865 -0.00885863 0.0303523 0.999446 0.0136868
0.400579 0.0133865 -0.00885863 0.0120972 0.999914 0.0049768
0.383438 0.0133865 -0.00885863 -0.00307653 0.999952 0.00932395
0.366295 0.0133865 -0.00885863 -0.000167714 0.999999 0.00128256
0.349154 0.0133865 -0.00885863 -0.016926 0.999794 0.0112332
0.332011 0.0133865 -0.00885863 0.0169221 0.999794 0.0112337
0.31487 0.0133865 -0.00885863 -0.0240719 0.999631 0.0125878
0.297729 0.0133865 -0.00885863 -0.016922 0.999794 0.0112337
0.280586 0.0133865 -0.00885863 0.016922 0.999794 0.0112337
0.263445 0.0133865 -0.00885863 0.0240719 0.999631 0.0125878
0.246303 0.0133865 -0.00885863 -0.0169221 0.999794 0.0112337
0.229161 0.0133865 -0.00885863 0.016926 0.999794 0.0112332
0.21202 0.0133865 -0.00885863 -0.0169261 0.999794 0.0112332
0.194877 0.0133865 -0.00885863 0.00307647 0.999952 -0.00932396
0.177736 0.0133865 -0.00885863 -0.0120972 0.999914 0.00497678
0.160594 0.0133865 -0.00885863 -0.00307641 0.999952 0.00932395
0.143452 0.0133865 -0.00885863 0.016926 0.999794 0.0112332
0.12631 0.0133865 -0.00885863 0.000167714 0.999999 0.00128256
0.109168 0.0133865 -0.00885863 0.00307641 0.999952 -0.00932396
0.0920266 0.0133865 -0.00885863 -0.0240721 0.999631 0.0125878
0.0748852 0.0133865 -0.00885863 -0.0169221 0.999794 0.0112337
0.0577428 0.0133865 -0.00885863 0.0169221 0.999794 0.0112337
0.0406014 0.0133865 -0.00885863 0.00932339 0.999952 0.00308045
0.02346 0.0133865 -0.00885863 -0.0169221 0.999794 0.0112337
0.00631752 0.0133865 -0.00885863 -0.000167707 0.999999 0.00128256
-0.0108239 0.0133865 -0.00885863 0.0001677 0.999999 0.00128256
-0.0279663 0.0133865 -0.00885863 0.0169221 0.999794 0.0112337
-0.0451077 0.0133865 -0.00885863 -0.00932338 0.999952 0.00308045
-0.0622491 0.0133865 -0.00885863 -0.00307641 0.999952 0.00932395
-0.0793916 0.0133865 -0.00885863 0.0169221 0.999794 0.0112337
-0.0965329 0.0133865 -0.00885863 -0.024072 0.999631 0.0125878
-0.113674 0.0133865 -0.00885863 -0.0169221 0.999794 0.0112337
-0.130817 0.0133865 -0.00885863 0.016926 0.999794 0.0112332
-0.147958 0.0133865 -0.00885863 0.000167678 0.999999 0.00128256
-0.165101 0.0133865 -0.00885863 0.00307641 0.999952 0.00932394
-0.182242 0.0133865 -0.00885863 -0.0120972 0.999914 0.00497678
-0.199383 0.0133865 -0.00885863 -0.0169221 0.999794 0.0112337
-0.216526 0.0133865 -0.00885863 0.016922 0.999794 0.0112337
-0.233667 0.0133865 -0.00885863 0.024072 0.999631 -0.0125878
-0.250809 0.0133865 -0.00885863 -0.0169221 0.999794 0.0112337
-0.267951 0.0133865 -0.00885863 0.016926 0.999794 0.0112332
-0.285093 0.0133865 -0.00885863 -0.0169261 0.999794 0.0112332
-0.302235 0.0133865 -0.00885863 0.00307653 0.999952 0.00932395
-0.319376 0.0133865 -0.00885863 -0.000167728 0.999999 0.00128243
-0.336518 0.0133865 -0.00885863 -0.0169221 0.999794 0.0112337
-0.35366 0.0133865 -0.00885863 0.0169261 0.999794 0.0112332
-0.370802 0.0133865 -0.00885863 0.000167714 0.999999 0.00128256
-0.387944 0.0133865 -0.00885863 -0.0178299 0.999831 0.00452859
-0.405085 0.0133865 -0.00885863 -0.160532 0.987031 -1.11898e-009
-0.422227 0.0127517 -0.00885863 -0.115598 0.993176 -0.0154655
-0.439369 0.0108475 -0.00885863 -0.143859 0.989594 -0.00288603
-0.456511 0.00767266 -0.00885863 -0.0865352 0.996214 -0.00834782
-0.495239 0.0165623 -0.00251009 0.957508 0.288293 -0.00811502
0.516762 0.00830849 -0.0113987 -0.666583 0.745096 0.0223261
0.502795 0.00576842 -0.00949337 -0.23128 0.972887 0.000977964
-0.473017 0.00576842 -0.00822388 0.231263 0.972891 -0.00097839
-0.486985 0.00830849 -0.00631964 0.651184 0.758483 0.025749
0.516762 0.0381491 -0.023461 0.698392 0.715709 0.00290505
0.502795 0.0444987 -0.0253653 0.368107 0.929738 0.0091982
0.486288 0.0470388 -0.026 0.13611 0.990688 0.00333727
0.469146 0.0476736 -0.026 0.0417576 0.999051 0.0123673
0.452004 0.0476736 -0.026 -0.00408227 0.999987 0.00304188
0.434863 0.0476736 -0.026 0.0240696 0.999631 0.0125849
0.41772 0.0476736 -0.026 -0.0125849 0.999631 0.0240699
0.400579 0.0476736 -0.026 -0.0093239 0.999952 0.00307636
0.383438 0.0476736 -0.026 0.0125851 0.999631 0.0240699
0.366295 0.0476736 -0.026 -0.0112337 0.999794 0.0169232
0.349154 0.0476736 -0.026 0.0112336 0.999794 0.0169232
0.332011 0.0476736 -0.026 -0.0125849 0.999631 0.0240699
0.31487 0.0476736 -0.026 0.00932381 0.999952 0.00307637
0.297729 0.0476736 -0.026 0.0240698 0.999631 0.0125849
0.280586 0.0476736 -0.026 -0.0240698 0.999631 0.0125849
0.263445 0.0476736 -0.026 -0.00932381 0.999952 0.00307637
0.246303 0.0476736 -0.026 0.0125849 0.999631 0.0240699
0.229161 0.0476736 -0.026 -0.0112337 0.999794 0.0169232
0.21202 0.0476736 -0.026 0.0112337 0.999794 0.0169232
0.194877 0.0476736 -0.026 -0.012585 0.999631 0.0240699
0.177736 0.0476736 -0.026 0.0093239 0.999952 0.00307637
0.160594 0.0476736 -0.026 0.0125849 0.999631 0.0240699
0.143452 0.0476736 -0.026 -0.0112336 0.999794 0.0169232
0.12631 0.0476736 -0.026 0.0112337 0.999794 0.0169232
0.109168 0.0476736 -0.026 -0.0125849 0.999631 0.0240699
0.0920266 0.0476736 -0.026 0.0112337 0.999794 0.0169221
0.0748852 0.0476736 -0.026 0.0125849 0.999631 0.0240699
0.0577428 0.0476736 -0.026 -0.0125849 0.999631 0.0240699
0.0406014 0.0476736 -0.026 -0.0112337 0.999794 0.0169221
0.02346 0.0476736 -0.026 0.0125849 0.999631 0.0240699
0.00631752 0.0476736 -0.026 -0.0112337 0.999794 0.0169232
-0.0108239 0.0476736 -0.026 0.0112337 0.999794 0.0169232
-0.0279663 0.0476736 -0.026 -0.0125849 0.999631 0.0240699
-0.0451077 0.0476736 -0.026 0.00932394 0.999952 0.00307637
-0.0622491 0.0476736 -0.026 0.0125849 0.999631 0.0240699
-0.0793916 0.0476736 -0.026 -0.0240699 0.999631 0.0125849
-0.0965329 0.0476736 -0.026 0.00932386 0.999952 0.00307637
-0.113674 0.0476736 -0.026 0.0125849 0.999631 0.0240699
-0.130817 0.0476736 -0.026 -0.0112337 0.999794 0.0169232
-0.147958 0.0476736 -0.026 0.0112337 0.999794 0.0169232
-0.165101 0.0476736 -0.026 -0.0125849 0.999631 0.0240699
-0.182242 0.0476736 -0.026 0.0093239 0.999952 0.00307637
-0.199383 0.0476736 -0.026 0.0240699 0.999631 0.0125849
-0.216526 0.0476736 -0.026 -0.0240698 0.999631 0.0125849
-0.233667 0.0476736 -0.026 -0.00932388 0.999952 0.00307637
-0.250809 0.0476736 -0.026 0.0125849 0.999631 0.0240699
-0.267951 0.0476736 -0.026 -0.0112336 0.999794 0.0169232
-0.285093 0.0476736 -0.026 0.0112337 0.999794 0.0169232
-0.302235 0.0476736 -0.026 -0.0125851 0.999631 0.0240699
-0.319376 0.0476736 -0.026 -0.0112337 0.999794 0.0169221
-0.336518 0.0476736 -0.026 0.0125849 0.999631 0.0240699
-0.35366 0.0476736 -0.026 -0.0112337 0.999794 0.0169232
-0.370802 0.0476736 -0.026 0.0112337 0.999794 0.0169232
-0.387944 0.0476736 -0.026 -0.0125848 0.999631 0.0240699
-0.405085 0.0476736 -0.026 0.00932385 0.999952 0.00307636
-0.422227 0.0476736 -0.026 0.0179265 0.999772 0.0115846
-0.439369 0.0476736 -0.026 -0.0453287 0.998972 0.000402916
-0.456511 0.0470388 -0.026 -0.137128 0.990536 -0.00579063
-0.473018 0.0444987 -0.0266358 -0.36812 0.929733 -0.00920008
0.525016 0.027991 -0.0196515 0.947859 0.318274 0.0162839
-0.486986 0.0381491 -0.0285401 -0.698413 0.715689 -0.00290507
-0.495239 0.027991 -0.0323496 -0.947845 0.318316 -0.0162779
0.525016 0.0165623 -0.0323496 -0.957513 0.288277 0.00811733
0.486288 0.00767266 -0.026 0.0865337 0.996214 0.00834736
0.469146 0.0108475 -0.026 0.143849 0.989595 0.00289128
0.452004 0.0127517 -0.026 0.115606 0.993175 -0.0154599
0.434863 0.0133865 -0.026 -0.0903847 0.995907 1.97916e-006
0.41772 0.0133865 -0.026 0.0303538 0.999446 -0.0136829
0.400579 0.0133865 -0.026 0.0093239 0.999952 -0.00307636
0.383438 0.0133865 -0.026 -0.0125851 0.999631 -0.0240699
0.366295 0.0133865 -0.026 0.0112337 0.999794 -0.0169232
0.349154 0.0133865 -0.026 -0.0112336 0.999794 -0.0169232
0.332011 0.0133865 -0.026 0.0125849 0.999631 -0.0240699
0.31487 0.0133865 -0.026 -0.00932381 0.999952 -0.00307637
0.297729 0.0133865 -0.026 -0.0240698 0.999631 -0.0125849
0.280586 0.0133865 -0.026 0.0240698 0.999631 -0.0125849
0.263445 0.0133865 -0.026 0.00932381 0.999952 -0.00307637
0.246303 0.0133865 -0.026 -0.0125849 0.999631 -0.0240699
0.229161 0.0133865 -0.026 0.0112337 0.999794 -0.0169232
0.21202 0.0133865 -0.026 -0.0112337 0.999794 -0.0169232
0.194877 0.0133865 -0.026 0.012585 0.999631 -0.0240699
0.177736 0.0133865 -0.026 -0.0093239 0.999952 -0.00307637
0.160594 0.0133865 -0.026 -0.0125849 0.999631 -0.0240699
0.143452 0.0133865 -0.026 0.0112336 0.999794 -0.0169232
0.12631 0.0133865 -0.026 -0.0112337 0.999794 -0.0169232
0.109168 0.0133865 -0.026 0.0125849 0.999631 -0.0240699
0.0920266 0.0133865 -0.026 -0.0112337 0.999794 -0.0169221
0.0748852 0.0133865 -0.026 -0.0125849 0.999631 -0.0240699
0.0577428 0.0133865 -0.026 0.0125849 0.999631 -0.0240699
0.0406014 0.0133865 -0.026 0.0112337 0.999794 -0.0169221
0.02346 0.0133865 -0.026 -0.0125849 0.999631 -0.0240699
0.00631752 0.0133865 -0.026 0.0112337 0.999794 -0.0169232
-0.0108239 0.0133865 -0.026 -0.0112337 0.999794 -0.0169232
-0.0279663 0.0133865 -0.026 0.0125849 0.999631 -0.0240699
-0.0451077 0.0133865 -0.026 -0.00932394 0.999952 -0.00307637
-0.0622491 0.0133865 -0.026 -0.0125849 0.999631 -0.0240699
-0.0793916 0.0133865 -0.026 0.0240699 0.999631 -0.0125849
-0.0965329 0.0133865 -0.026 -0.00932386 0.999952 -0.00307637
-0.113674 0.0133865 -0.026 -0.0125849 0.999631 -0.0240699
-0.130817 0.0133865 -0.026 0.0112337 0.999794 -0.0169232
-0.147958 0.0133865 -0.026 -0.0112337 0.999794 -0.0169232
-0.165101 0.0133865 -0.026 0.0125849 0.999631 -0.0240699
-0.182242 0.0133865 -0.026 -0.0093239 0.999952 -0.00307637
-0.199383 0.0133865 -0.026 -0.0240699 0.999631 -0.0125849
-0.216526 0.0133865 -0.026 0.0240698 0.999631 -0.0125849
-0.233667 0.0133865 -0.026 0.00932388 0.999952 -0.00307637
-0.250809 0.0133865 -0.026 -0.0125849 0.999631 -0.0240699
-0.267951 0.0133865 -0.026 0.0112336 0.999794 -0.0169232
-0.285093 0.0133865 -0.026 -0.0112337 0.999794 -0.0169232
-0.302235 0.0133865 -0.026 0.0125851 0.999631 -0.0240699
-0.319376 0.0133865 -0.026 0.0112337 0.999794 -0.0169221
-0.336518 0.0133865 -0.026 -0.0125849 0.999631 -0.0240699
-0.35366 0.0133865 -0.026 0.0112337 0.999794 -0.0169232
-0.370802 0.0133865 -0.026 -0.0112337 0.999794 -0.0169232
-0.387944 0.0133865 -0.026 -0.0178307 0.999831 -0.00452417
-0.405085 0.0133865 -0.026 -0.160534 0.98703 7.91207e-006
-0.422227 0.0127517 -0.026 -0.115599 0.993176 -0.0154614
-0.439369 0.0108475 -0.026 -0.144444 0.989513 -0.000332126
-0.456511 0.00767266 -0.026 -0.0878706 0.99612 -0.00485935
-0.495239 0.0165623 -0.0196515 0.957508 0.288292 -0.00811498
0.516762 0.00830849 -0.0285401 -0.666582 0.745097 0.0223289
0.502795 0.00576842 -0.0266358 -0.231278 0.972887 0.000974674
-0.473017 0.00576842 -0.0253653 0.231262 0.972891 -0.00097435
-0.486985 0.00830849 -0.023461 0.66657 0.745108 -0.0223239
0.516762 0.0381491 -0.0406024 0.698393 0.715709 0.00290495
0.502795 0.0444987 -0.0425077 0.368108 0.929738 0.0091985
0.486288 0.0470388 -0.0431425 0.137135 0.990535 0.00579041
0.469146 0.0476736 -0.0431425 0.0416009 0.999087 -0.00975612
0.452004 0.0476736 -0.0431425 -0.00408181 0.999987 -0.00304634
0.434863 0.0476736 -0.0431425 0.016923 0.999794 -0.0112337
0.41772 0.0476736 -0.0431425 -0.0169233 0.999794 -0.0112337
0.400579 0.0476736 -0.0431425 -0.00932344 0.999952 -0.00308073
0.383438 0.0476736 -0.0431425 0.0169234 0.999794 -0.0112337
0.366295 0.0476736 -0.0431425 -0.0112332 0.999794 -0.0169272
0.349154 0.0476736 -0.0431425 0.0169271 0.999794 -0.0112332
0.332011 0.0476736 -0.0431425 -0.0169233 0.999794 -0.0112337
0.31487 0.0476736 -0.0431425 0.00932335 0.999952 -0.00308074
0.297729 0.0476736 -0.0431425 0.0169232 0.999794 -0.0112337
0.280586 0.0476736 -0.0431425 -0.0169232 0.999794 -0.0112337
0.263445 0.0476736 -0.0431425 -0.00932335 0.999952 -0.00308074
0.246303 0.0476736 -0.0431425 0.0169233 0.999794 -0.0112337
0.229161 0.0476736 -0.0431425 -0.0169271 0.999794 -0.0112332
0.21202 0.0476736 -0.0431425 0.0112332 0.999794 -0.0169272
0.194877 0.0476736 -0.0431425 -0.0169233 0.999794 -0.0112337
0.177736 0.0476736 -0.0431425 0.00932345 0.999952 -0.00308074
0.160594 0.0476736 -0.0431425 0.0169233 0.999794 -0.0112337
0.143452 0.0476736 -0.0431425 -0.0169271 0.999794 -0.0112332
0.12631 0.0476736 -0.0431425 0.0169272 0.999794 -0.0112332
0.109168 0.0476736 -0.0431425 -0.0169233 0.999794 -0.0112337
0.0920266 0.0476736 -0.0431425 0.00932347 0.999952 -0.00308074
0.0748852 0.0476736 -0.0431425 0.0169232 0.999794 -0.0112337
