ply
format ascii 1.0
element vertex 829
property float x
property float y
property float z
property float nx
property float ny
property float nz
end_header
-0.304636 0.544239 0.0953001 0.999505 0.0314562 0.000854588
-0.389562 0.544239 0.0953001 -0.999438 -0.0166919 0.0290731
-0.304636 0.527254 0.0953001 0.999995 0.00309675 -0.000513583
-0.389483 0.527254 0.0953001 -0.997914 -0.032238 0.0559362
-0.304636 0.510271 0.0953001 0.999581 -0.0283152 -0.00607655
-0.389011 0.510271 0.0953001 -0.993212 -0.07066 0.0924009
-0.305063 0.493151 0.0950075 0.991733 -0.12451 -0.0310383
-0.387674 0.493286 0.095929 -0.982955 -0.145182 0.112792
-0.307332 0.476724 0.0932237 0.942852 -0.326059 -0.0686691
-0.38467 0.477163 0.0983865 -0.942704 -0.313614 0.11382
-0.313215 0.46345 0.0874361 0.790249 -0.598579 -0.131184
-0.378672 0.463198 0.104758 -0.846148 -0.529071 0.0641643
-0.323589 0.45255 0.0932185 0.559753 -0.812151 -0.164579
-0.338714 0.446364 0.0945941 0.19679 -0.962875 -0.184785
-0.35512 0.445882 0.0960633 -0.252879 -0.95891 -0.128622
-0.369444 0.451763 0.0990248 -0.601112 -0.797966 -0.0437542
0.388579 -0.110604 0.0984448 0.598356 0.801224 0.00302178
0.374111 -0.104314 0.095929 0.33043 0.943821 0.00427095
0.357756 -0.101797 0.0953001 0.138025 0.990404 0.00692905
0.340771 -0.101168 0.0953001 0.0409371 0.999162 6.29424e-005
0.323786 -0.101168 0.0953001 0.00484947 0.999988 -9.53302e-009
0.306802 -0.101168 0.0953001 -0 1 -0
0.289818 -0.101168 0.0953001 0 1 0
0.272833 -0.101168 0.0953001 0 1 0
0.255848 -0.101168 0.0953001 -4.0148e-020 1 -4.48655e-017
0.238864 -0.101168 0.0953001 1.14814e-017 1 1.21964e-016
0.22188 -0.101168 0.0953001 -5.67384e-017 1 1.01653e-017
0.204895 -0.101168 0.0953001 -1.41385e-017 1 1.71953e-017
0.187911 -0.101168 0.0953001 -1.41385e-017 1 -1.71679e-017
0.170926 -0.101168 0.0953001 -5.67406e-017 1 -1.01653e-017
0.153942 -0.101168 0.0953001 1.14814e-017 1 -1.21954e-016
0.136958 -0.101168 0.0953001 -1.41385e-017 1 -1.71953e-017
0.119973 -0.101168 0.0953001 0 1 0
0.102988 -0.101168 0.0953001 -0 1 -0
0.0860037 -0.101168 0.0953001 0 1 0
0.0690199 -0.101168 0.0953001 -2.68469e-018 1 3.34506e-017
0.0520352 -0.101168 0.0953001 4.9625e-017 1 -3.04941e-017
0.0350504 -0.101168 0.0953001 -4.38603e-018 1 -1.041e-017
0.0180667 -0.101168 0.0953001 -0 1 -0
0.00108196 -0.101168 0.0953001 -6.09234e-017 1 -7.51238e-025
-0.0159028 -0.101168 0.0953001 -4.38603e-018 1 -1.04106e-017
-0.0328865 -0.101168 0.0953001 -0 1 -0
-0.0498713 -0.101168 0.0953001 0 1 0
-0.066856 -0.101168 0.0953001 -4.46712e-017 1 -2.82241e-017
-0.0838408 -0.101168 0.0953001 -2.69222e-018 1 6.02815e-017
-0.100824 -0.101168 0.0953001 1.41385e-017 1 1.71898e-017
-0.117809 -0.101168 0.0953001 0 1 0
-0.134794 -0.101168 0.0953001 1.41385e-017 1 -1.71898e-017
-0.151778 -0.101168 0.0953001 -0 1 -0
-0.168762 -0.101168 0.0953001 1.69087e-017 1 4.066e-017
-0.185747 -0.101168 0.0953001 -0.000346287 1 -5.82438e-005
-0.202731 -0.101168 0.0953001 -0.00922814 0.999945 -0.00496077
-0.219716 -0.101168 0.0953001 -0.0510307 0.998403 -0.0242543
-0.236579 -0.101919 0.0951376 -0.16071 0.984719 -0.0670915
-0.252135 -0.104986 0.0938443 -0.409259 0.898592 -0.158237
0.399273 -0.121298 0.104735 0.833794 0.552076 -0.000162113
-0.26228 -0.111557 0.089703 -0.610545 0.756618 -0.234017
-0.271875 -0.121655 0.0924958 -0.805346 0.512702 -0.29758
0.404935 -0.135767 0.0978159 0.980402 0.197007 5.83734e-005
-0.277659 -0.136243 0.0946482 -0.928128 0.16091 -0.335687
0.404935 -0.151494 0.0927832 0.980402 -0.197008 -5.85489e-005
-0.279245 -0.151683 0.0982563 -0.933197 -0.185896 -0.307547
0.399273 -0.165963 0.0858637 0.833794 -0.552075 0.000162077
-0.275627 -0.166191 0.104807 -0.809617 -0.540871 -0.22799
0.388579 -0.176657 0.0921543 0.598346 -0.801232 -0.00302044
0.374111 -0.182948 0.0946711 0.330419 -0.943825 -0.00427121
0.357756 -0.185464 0.0953001 0.137903 -0.990445 -0.00122368
0.340771 -0.186094 0.0953001 0.0409428 -0.999161 -6.24118e-005
0.323786 -0.186094 0.0953001 0.00485751 -0.999988 -9.54882e-009
0.306802 -0.186094 0.0953001 -2.83573e-017 -1 5.51873e-017
0.289818 -0.186094 0.0953001 3.41516e-017 -1 -5.64182e-017
0.272833 -0.186094 0.0953001 2.82762e-017 -1 -3.32746e-017
0.255848 -0.186094 0.0953001 2.29629e-017 -1 -2.43885e-016
0.238864 -0.186094 0.0953001 -2.83573e-017 -1 5.5253e-017
0.22188 -0.186094 0.0953001 1.47294e-016 -1 -9.01936e-017
0.204895 -0.186094 0.0953001 2.81967e-017 -1 -1.24034e-016
0.187911 -0.186094 0.0953001 2.82769e-017 -1 3.43358e-017
0.170926 -0.186094 0.0953001 3.38264e-017 -1 -1.10526e-016
0.153942 -0.186094 0.0953001 -2.29629e-017 -1 2.43907e-016
0.136958 -0.186094 0.0953001 -2.29628e-017 -1 -2.43929e-016
0.119973 -0.186094 0.0953001 3.26448e-016 -1 -1.98732e-016
0.102988 -0.186094 0.0953001 -1.98363e-016 -1 4.47946e-017
0.0860037 -0.186094 0.0953001 -5.39953e-018 -1 3.08033e-016
0.0690199 -0.186094 0.0953001 5.36937e-018 -1 -6.69013e-017
0.0520352 -0.186094 0.0953001 -8.94536e-017 -1 5.21133e-017
0.0350504 -0.186094 0.0953001 5.36935e-018 -1 6.68931e-017
0.0180667 -0.186094 0.0953001 5.36937e-018 -1 -6.68958e-017
0.00108196 -0.186094 0.0953001 6.01132e-018 -1 -1.37759e-016
-0.0159028 -0.186094 0.0953001 -8.77206e-018 -1 -2.08213e-017
-0.0328865 -0.186094 0.0953001 -3.70641e-017 -1 -2.01029e-016
-0.0498713 -0.186094 0.0953001 -2.12789e-016 -1 -2.19083e-016
-0.066856 -0.186094 0.0953001 8.93084e-017 -1 -3.65049e-017
-0.0838408 -0.186094 0.0953001 -2.28925e-017 -1 -8.61615e-017
-0.100824 -0.186094 0.0953001 -2.28925e-017 -1 8.61943e-017
-0.117809 -0.186094 0.0953001 0 -1 3.5665e-016
-0.134794 -0.186094 0.0953001 2.29628e-017 -1 -2.43951e-016
-0.151778 -0.186094 0.0953001 2.29629e-017 -1 2.43929e-016
-0.168762 -0.186094 0.0953001 -3.3818e-017 -1 -3.6514e-017
-0.185747 -0.186094 0.0953001 -0.00237737 -0.999997 -0.000250554
-0.202731 -0.186094 0.0953001 -0.0138731 -0.999895 -0.00407806
-0.219595 -0.185958 0.0955562 -0.0513466 -0.99858 -0.0142057
-0.235497 -0.185293 0.0962029 -0.158677 -0.986624 -0.0373348
-0.250515 -0.182934 0.0968318 -0.353785 -0.931383 -0.0857984
-0.2641 -0.176679 0.098701 -0.591333 -0.792122 -0.151222
-0.345525 0.806556 0.0852348 0.544814 0.838557 -0.000448977
-0.358107 0.812217 0.0808311 0.222615 0.974906 0.0012226
-0.372576 0.812217 0.0783153 -0.177224 0.984167 0.00261329
-0.386415 0.806556 0.0751695 -0.544702 0.838628 0.00198848
-0.328541 0.781393 0.0852348 0.924236 0.381795 0.00440377
-0.33546 0.795862 0.0751695 0.793988 0.607931 0.00163391
-0.39711 0.795862 0.068879 -0.809958 0.586488 0.000145055
-0.403401 0.781393 0.0751695 -0.942776 0.3334 -0.00413315
-0.324137 0.765037 0.0808311 0.978666 0.205453 0.0013736
-0.405917 0.765037 0.0776864 -0.990877 0.134736 -0.00302589
-0.32225 0.748053 0.0789443 0.995583 0.0938749 0.00172031
-0.406546 0.748052 0.0783153 -0.999247 0.0387774 -0.00138377
-0.321621 0.731068 0.0783153 0.999505 0.0314469 0.000853721
-0.406546 0.731068 0.0783153 -0.999986 0.00537912 6.73321e-005
-0.321621 0.714084 0.0783153 0.999979 0.00626748 -0.00130588
-0.406546 0.714084 0.0783153 -1 -0 0
-0.321621 0.697099 0.0783153 1 0 0
-0.406546 0.697099 0.0783153 -0.999978 -0.00655654 0.000554363
-0.321621 0.680115 0.0783153 0.999978 0.00655556 0.000554332
-0.406546 0.680115 0.0783153 -0.999343 -0.0357407 0.00604881
-0.321621 0.66313 0.0783153 0.999505 0.031457 0.00085467
-0.405917 0.66313 0.0789443 -0.994676 -0.100661 0.0220872
-0.320992 0.646146 0.0776864 0.996288 0.0860773 0.000878847
-0.403787 0.646402 0.0807957 -0.983295 -0.176603 0.0440752
-0.319104 0.629162 0.0757995 0.987665 0.156582 -0.000873387
-0.399667 0.630455 0.0849838 -0.973581 -0.21839 0.0666741
-0.310927 0.595192 0.0846059 0.977734 0.209843 -0.00125043
-0.315331 0.612177 0.0720248 0.977734 0.209845 -0.00125024
-0.395614 0.612891 0.072762 -0.977387 -0.207914 0.038553
-0.391715 0.595813 0.0767565 -0.988915 -0.144637 0.033579
-0.307153 0.578209 0.0808311 0.987664 0.156586 -0.000873617
-0.389989 0.578343 0.0780238 -0.997526 -0.0686778 0.0150141
-0.305265 0.561224 0.0789443 0.996288 0.0860751 0.000879205
-0.389562 0.561224 0.0783153 -0.999716 -0.0227885 0.00695661
-0.304636 0.544239 0.0783153 0.999505 0.0314562 0.000854595
-0.389562 0.544239 0.0783153 -0.999934 -0.00813515 0.00806321
-0.304636 0.527254 0.0783153 1 0.000616983 -0.000786533
-0.389562 0.527254 0.0783153 -0.999819 -0.0119263 0.0148447
-0.304636 0.510271 0.0783153 0.998986 -0.0434503 -0.0117785
-0.389562 0.510271 0.0783153 -0.998366 -0.0485506 0.0301491
-0.305243 0.493297 0.0777759 0.987558 -0.15203 -0.0402047
-0.388854 0.493286 0.0789443 -0.988403 -0.143852 0.0486391
-0.307813 0.477694 0.0756641 0.926613 -0.365926 -0.0865273
-0.386102 0.47693 0.0814611 -0.940664 -0.335643 0.0499536
-0.314173 0.465622 0.0705919 0.784085 -0.605532 -0.136168
-0.379606 0.462646 0.0878235 -0.800026 -0.599497 0.0236892
-0.321524 0.456556 0.0787839 0.628785 -0.762577 -0.152006
-0.336553 0.450443 0.0753622 0.28337 -0.944814 -0.1644
-0.354284 0.447792 0.0782341 -0.154263 -0.981207 -0.115913
-0.369296 0.452306 0.0813934 -0.538188 -0.841278 -0.0510449
0.388579 -0.110604 0.0814611 0.598356 0.801225 0.00302168
0.374111 -0.104314 0.0789443 0.33043 0.943821 0.00427081
0.357756 -0.101797 0.0783153 0.133251 0.991078 0.00309067
0.340771 -0.101168 0.0783153 0.0409371 0.999162 6.27037e-005
0.323786 -0.101168 0.0783153 0.00484947 0.999988 -3.42516e-011
0.306802 -0.101168 0.0783153 -1.21663e-016 1 -8.09919e-023
0.289818 -0.101168 0.0783153 -0 1 -0
0.272833 -0.101168 0.0783153 0 1 0
0.255848 -0.101168 0.0783153 1.7625e-016 1 1.06363e-016
0.238864 -0.101168 0.0783153 6.30615e-017 1 1.06364e-016
0.22188 -0.101168 0.0783153 1.35867e-016 1 -1.06364e-016
0.204895 -0.101168 0.0783153 0 1 0
0.187911 -0.101168 0.0783153 -0 1 -0
0.170926 -0.101168 0.0783153 9.52036e-017 1 -3.81838e-022
0.153942 -0.101168 0.0783153 -1.30451e-016 1 1.06364e-016
0.136958 -0.101168 0.0783153 8.71374e-017 1 1.06363e-016
0.119973 -0.101168 0.0783153 -0 1 -0
0.102988 -0.101168 0.0783153 6.88459e-017 1 -1.87686e-022
0.0860037 -0.101168 0.0783153 -5.24222e-017 1 1.06364e-016
0.0690199 -0.101168 0.0783153 -8.06415e-017 1 -4.41881e-022
0.0520352 -0.101168 0.0783153 -1.36295e-016 1 2.09432e-023
0.0350504 -0.101168 0.0783153 -1.83088e-016 1 1.06364e-016
0.0180667 -0.101168 0.0783153 -0 1 -0
0.00108196 -0.101168 0.0783153 0 1 0
-0.0159028 -0.101168 0.0783153 0 1 0
-0.0328865 -0.101168 0.0783153 -0 1 -0
-0.0498713 -0.101168 0.0783153 2.21744e-017 1 -1.06364e-016
-0.066856 -0.101168 0.0783153 1.43242e-017 1 -1.06364e-016
-0.0838408 -0.101168 0.0783153 -1.35905e-016 1 1.06364e-016
-0.100824 -0.101168 0.0783153 1.36269e-016 1 -4.02572e-022
-0.117809 -0.101168 0.0783153 -6.54814e-032 1 6.73354e-017
-0.134794 -0.101168 0.0783153 -5.45854e-017 1 -1.06363e-016
-0.151778 -0.101168 0.0783153 5.24216e-017 1 1.06364e-016
-0.168762 -0.101168 0.0783153 -0 1 -0
-0.185747 -0.101168 0.0783153 -0.000392964 1 -6.82358e-005
-0.202731 -0.101168 0.0783153 -0.0186098 0.999803 -0.00695244
-0.219716 -0.101247 0.0783153 -0.0841133 0.996024 -0.0293503
-0.236188 -0.102624 0.0779915 -0.235626 0.969202 -0.0716103
0.399273 -0.121298 0.0877516 0.833794 0.552076 -0.000162055
-0.251196 -0.107243 0.0765805 -0.491607 0.85976 -0.138329
-0.263691 -0.118968 0.0734045 -0.772116 0.607155 -0.187614
0.404935 -0.135767 0.0808311 0.980402 0.197007 5.83877e-005
-0.271998 -0.135543 0.0776812 -0.945992 0.206627 -0.249809
0.404935 -0.151494 0.0757995 0.980402 -0.197008 -5.83921e-005
-0.274109 -0.151543 0.0813663 -0.947474 -0.176983 -0.266403
0.399273 -0.165963 0.068879 0.833794 -0.552075 0.00016206
-0.271576 -0.166008 0.0879797 -0.82347 -0.519468 -0.228146
0.388579 -0.176657 0.0751695 0.598346 -0.801232 -0.00302036
0.374111 -0.182948 0.0776864 0.33042 -0.943824 -0.00427143
0.357756 -0.185464 0.0783153 0.13432 -0.990923 -0.00548235
0.340771 -0.186094 0.0783153 0.0409428 -0.999161 -6.26238e-005
0.323786 -0.186094 0.0783153 0.00485751 -0.999988 -3.43082e-011
0.306802 -0.186094 0.0783153 5.00753e-017 -1 -7.96587e-017
0.289818 -0.186094 0.0783153 1.18861e-016 -1 2.40215e-017
0.272833 -0.186094 0.0783153 3.09208e-016 -1 -7.96594e-017
0.255848 -0.186094 0.0783153 -0 -1 -0
0.238864 -0.186094 0.0783153 1.05792e-016 -1 -7.96597e-017
0.22188 -0.186094 0.0783153 5.03049e-017 -1 2.4021e-017
0.204895 -0.186094 0.0783153 -8.12888e-018 -1 -7.96558e-017
0.187911 -0.186094 0.0783153 -3.19982e-016 -1 -7.96605e-017
0.170926 -0.186094 0.0783153 -2.06528e-016 -1 -7.96586e-017
0.153942 -0.186094 0.0783153 6.58646e-017 -1 -7.96541e-017
0.136958 -0.186094 0.0783153 -6.11752e-017 -1 -7.96638e-017
0.119973 -0.186094 0.0783153 -8.44446e-017 -1 -7.96549e-017
0.102988 -0.186094 0.0783153 2.12522e-017 -1 -7.96594e-017
0.0860037 -0.186094 0.0783153 -1.25848e-016 -1 -7.96582e-017
0.0690199 -0.186094 0.0783153 -1.29501e-016 -1 -7.96589e-017
0.0520352 -0.186094 0.0783153 -5.17814e-017 -1 -7.96572e-017
0.0350504 -0.186094 0.0783153 1.00294e-016 -1 -7.96586e-017
0.0180667 -0.186094 0.0783153 -1.50781e-017 -1 -7.96589e-017
0.00108196 -0.186094 0.0783153 -2.22861e-016 -1 2.40228e-017
-0.0159028 -0.186094 0.0783153 1.38651e-016 -1 -7.96592e-017
-0.0328865 -0.186094 0.0783153 3.36694e-016 -1 -7.96584e-017
-0.0498713 -0.186094 0.0783153 -8.31916e-018 -1 2.40234e-017
-0.066856 -0.186094 0.0783153 1.29374e-016 -1 -7.96583e-017
-0.0838408 -0.186094 0.0783153 3.19663e-017 -1 -7.96597e-017
-0.100824 -0.186094 0.0783153 2.51478e-016 -1 -7.96582e-017
-0.117809 -0.186094 0.0783153 -1.25021e-031 -1 1.56897e-016
-0.134794 -0.186094 0.0783153 -1.13828e-016 -1 -7.96604e-017
-0.151778 -0.186094 0.0783153 1.83149e-016 -1 -7.96575e-017
-0.168762 -0.186094 0.0783153 9.17846e-018 -1 -1.82851e-016
-0.185747 -0.186094 0.0783153 -0.00329019 -0.999995 5.22733e-006
-0.202731 -0.186094 0.0783153 -0.0238265 -0.999677 -0.00884979
-0.219756 -0.185667 0.0785444 -0.0826156 -0.996426 -0.0176179
-0.235825 -0.184372 0.0798794 -0.222247 -0.973567 -0.0526712
-0.247824 -0.182777 0.0836104 -0.349163 -0.932582 -0.0915184
-0.259964 -0.176823 0.0827096 -0.593089 -0.789564 -0.157587
-0.345525 0.806556 0.06825 0.544637 0.838667 -0.00279789
-0.358107 0.812217 0.0638474 0.222671 0.974894 0.000181209
-0.372576 0.812217 0.0613306 -0.177268 0.984161 0.00148592
-0.386415 0.806556 0.0581858 -0.544646 0.838666 0.00116322
-0.328541 0.781393 0.06825 0.924494 0.381191 0.00229442
-0.33546 0.795862 0.0581858 0.793935 0.608003 0.000681602
-0.39711 0.795862 0.0518953 -0.80994 0.586513 -5.65934e-005
-0.403401 0.781393 0.0581858 -0.94279 0.333353 -0.00474277
-0.324137 0.765037 0.0638474 0.978667 0.205448 0.00137136
-0.405917 0.765037 0.0607016 -0.990903 0.134532 -0.00360015
-0.32225 0.748053 0.0619595 0.995583 0.0938749 0.00172036
-0.406546 0.748052 0.0613306 -0.999249 0.0387222 -0.00158143
-0.321621 0.731068 0.0613306 0.999505 0.0314469 0.00085372
-0.406546 0.731068 0.0613306 -0.999981 0.00614265 -0.000203421
-0.321621 0.714084 0.0613306 0.999978 0.0065556 0.000554349
-0.406546 0.714084 0.0613306 -1 -0 -0
-0.321621 0.697099 0.0613306 1 -0 0
-0.406546 0.697099 0.0613306 -0.999981 -0.00616552 -0.000683919
-0.321621 0.680115 0.0613306 0.999979 0.00626743 -0.00130583
-0.406546 0.680115 0.0613306 -0.999505 -0.0314453 0.00085354
-0.321621 0.66313 0.0613306 0.999505 0.031457 0.000854665
-0.405917 0.66313 0.0619595 -0.996069 -0.0884296 0.00520995
-0.320992 0.646146 0.0607016 0.996288 0.0860773 0.000878926
-0.40403 0.646146 0.0638474 -0.986337 -0.163874 0.0168911
-0.319104 0.629162 0.0588148 0.987665 0.156582 -0.000873452
-0.400179 0.62939 0.0677388 -0.975969 -0.215906 0.029479
-0.310927 0.595192 0.0676211 0.977734 0.209843 -0.00125027
-0.315331 0.612177 0.05504 0.977734 0.209845 -0.00125022
-0.39583 0.612244 0.0551306 -0.977569 -0.210112 0.0145645
-0.392033 0.595328 0.0589949 -0.988125 -0.152927 0.0149107
-0.307153 0.578209 0.0638474 0.987664 0.156586 -0.00087366
-0.390168 0.578275 0.0607922 -0.996594 -0.0818328 0.0102304
-0.305265 0.561224 0.0619595 0.996288 0.0860751 0.000879238
-0.389562 0.561224 0.0613306 -0.999587 -0.0284716 0.00402407
-0.304636 0.544239 0.0613306 0.999515 0.0311371 0.000758835
-0.389562 0.544239 0.0613306 -0.999987 -0.00508969 0.000350039
-0.304636 0.527254 0.0613306 0.999995 -0.00253675 -0.00164088
-0.389562 0.527254 0.0613306 -0.999977 -0.00673416 0.00104727
-0.304636 0.510271 0.0613306 0.99845 -0.053943 -0.013678
-0.389562 0.510271 0.0613306 -0.999157 -0.040665 0.00563894
-0.305566 0.493497 0.0606298 0.98155 -0.184675 -0.0495496
-0.388933 0.493286 0.0619595 -0.990037 -0.140071 0.0143592
-0.309018 0.478159 0.0585409 0.899859 -0.422278 -0.109247
-0.386349 0.476975 0.0644087 -0.935521 -0.353025 0.0131768
-0.315961 0.46747 0.0559022 0.774934 -0.617145 -0.136418
-0.326139 0.457401 0.0622854 0.540429 -0.825501 -0.162741
-0.340506 0.452258 0.0582348 0.248336 -0.959217 -0.135026
-0.37999 0.462709 0.0706315 -0.774398 -0.632641 -0.00854061
-0.35368 0.450232 0.0604954 -0.0828336 -0.990398 -0.110681
-0.36882 0.453122 0.0635819 -0.478524 -0.876213 -0.057142
0.388579 -0.110604 0.0644763 0.598356 0.801225 0.00302176
0.374111 -0.104314 0.0619595 0.33043 0.943821 0.00427059
0.357756 -0.101797 0.0613306 0.137903 0.990445 0.00121922
0.340771 -0.101168 0.0613306 0.0409371 0.999162 6.24892e-005
0.323786 -0.101168 0.0613306 0.00484947 0.999988 9.62253e-009
0.306802 -0.101168 0.0613306 -1.85146e-017 1 -2.38789e-016
0.289818 -0.101168 0.0613306 -0 1 -0
0.272833 -0.101168 0.0613306 -0 1 -0
0.255848 -0.101168 0.0613306 -4.22739e-020 1 4.48564e-017
0.238864 -0.101168 0.0613306 -1.85146e-017 1 -2.38756e-016
0.22188 -0.101168 0.0613306 -5.67385e-017 1 -1.90627e-016
0.204895 -0.101168 0.0613306 1.41591e-017 1 -5.21337e-018
0.187911 -0.101168 0.0613306 1.41591e-017 1 5.18602e-018
0.170926 -0.101168 0.0613306 -5.67405e-017 1 -1.70296e-016
0.153942 -0.101168 0.0613306 -1.85146e-017 1 2.38745e-016
0.136958 -0.101168 0.0613306 1.41591e-017 1 5.20789e-018
0.119973 -0.101168 0.0613306 -0 1 -0
0.102988 -0.101168 0.0613306 -4.95915e-017 1 -2.10953e-016
0.0860037 -0.101168 0.0613306 -0 1 -0
0.0690199 -0.101168 0.0613306 -2.68455e-018 1 -3.34512e-017
0.0520352 -0.101168 0.0613306 4.96251e-017 1 -1.49967e-016
0.0350504 -0.101168 0.0613306 -4.38597e-018 1 1.04102e-017
0.0180667 -0.101168 0.0613306 0 1 0
0.00108196 -0.101168 0.0613306 1.39475e-016 1 -1.80461e-016
-0.0159028 -0.101168 0.0613306 -4.38596e-018 1 1.04109e-017
-0.0328865 -0.101168 0.0613306 0 1 0
-0.0498713 -0.101168 0.0613306 -0 1 -0
-0.066856 -0.101168 0.0613306 4.37922e-018 1 4.72445e-017
-0.0838408 -0.101168 0.0613306 -4.39256e-018 1 6.84837e-017
-0.100824 -0.101168 0.0613306 -1.41591e-017 1 -5.20789e-018
-0.117809 -0.101168 0.0613306 6.57173e-033 1 -1.23819e-016
-0.134794 -0.101168 0.0613306 -1.41591e-017 1 5.20789e-018
-0.151778 -0.101168 0.0613306 0 1 0
-0.168762 -0.101168 0.0613306 5.67385e-017 1 -1.70296e-016
-0.185747 -0.101168 0.0613306 -0.00200846 0.999998 -0.0003015
-0.202731 -0.101168 0.0613306 -0.0279259 0.999583 -0.00729185
-0.219716 -0.101482 0.0613306 -0.110428 0.993474 -0.0285507
-0.236085 -0.103423 0.0609442 -0.291226 0.955048 -0.0554075
0.399273 -0.121298 0.0707669 0.833794 0.552076 -0.000162072
-0.250908 -0.109595 0.0590668 -0.56183 0.822193 -0.091352
-0.261713 -0.12073 0.0527127 -0.815589 0.570718 -0.0953727
0.404935 -0.135767 0.0638474 0.980402 0.197007 5.85459e-005
-0.268318 -0.135278 0.0597894 -0.966077 0.210039 -0.150262
0.404935 -0.151494 0.0588148 0.980402 -0.197008 -5.83884e-005
-0.26967 -0.151404 0.0643191 -0.965616 -0.179105 -0.188433
0.399273 -0.165963 0.0518953 0.833794 -0.552075 0.000162108
-0.266227 -0.166187 0.0714364 -0.834666 -0.515234 -0.194593
0.388579 -0.176657 0.0581858 0.598346 -0.801232 -0.00302045
0.374111 -0.182948 0.0607016 0.33042 -0.943824 -0.00427157
0.357756 -0.185464 0.0613306 0.138025 -0.990405 -0.00692892
0.340771 -0.186094 0.0613306 0.0409428 -0.999161 -6.28647e-005
0.323786 -0.186094 0.0613306 0.00485751 -0.999988 9.63847e-009
0.306802 -0.186094 0.0613306 -8.45492e-020 -1 -8.9494e-017
0.289818 -0.186094 0.0613306 3.4118e-017 -1 -2.71831e-016
0.272833 -0.186094 0.0613306 -2.83174e-017 -1 9.31021e-018
0.255848 -0.186094 0.0613306 -3.70292e-017 -1 4.77468e-016
0.238864 -0.186094 0.0613306 2.82336e-017 -1 -7.91986e-017
0.22188 -0.186094 0.0613306 3.38177e-017 -1 -2.71809e-016
0.204895 -0.186094 0.0613306 -2.84027e-017 -1 1.00052e-016
0.187911 -0.186094 0.0613306 -2.83181e-017 -1 -1.0372e-017
0.170926 -0.186094 0.0613306 3.38236e-017 -1 -1.0917e-016
0.153942 -0.186094 0.0613306 3.70292e-017 -1 -4.77489e-016
0.136958 -0.186094 0.0613306 3.70187e-017 -1 5.77907e-017
0.119973 -0.186094 0.0613306 3.26414e-016 -1 -1.29518e-016
0.102988 -0.186094 0.0613306 -1.9832e-016 -1 -1.90479e-016
0.0860037 -0.186094 0.0613306 -2.6379e-020 -1 2.3228e-016
0.0690199 -0.186094 0.0613306 5.3691e-018 -1 6.69024e-017
0.0520352 -0.186094 0.0613306 -8.94546e-017 -1 -2.71809e-016
0.0350504 -0.186094 0.0613306 5.36907e-018 -1 -6.68942e-017
0.0180667 -0.186094 0.0613306 5.36909e-018 -1 6.68969e-017
0.00108196 -0.186094 0.0613306 3.60342e-017 -1 -2.7181e-016
-0.0159028 -0.186094 0.0613306 -8.77192e-018 -1 2.08218e-017
-0.0328865 -0.186094 0.0613306 2.8305e-017 -1 -1.05718e-016
-0.0498713 -0.186094 0.0613306 -2.12823e-016 -1 -1.09166e-016
-0.066856 -0.186094 0.0613306 2.83174e-017 -1 -9.32115e-018
-0.0838408 -0.186094 0.0613306 3.71033e-017 -1 -1.47405e-016
-0.100824 -0.186094 0.0613306 3.71033e-017 -1 1.47372e-016
-0.117809 -0.186094 0.0613306 0 -1 -1.96974e-016
-0.134794 -0.186094 0.0613306 -3.70292e-017 -1 4.77533e-016
-0.151778 -0.186094 0.0613306 -3.70292e-017 -1 -4.77511e-016
-0.168762 -0.186094 0.0613306 -3.38168e-017 -1 -1.0917e-016
-0.185747 -0.186094 0.0613306 -0.00467653 -0.999989 2.20176e-006
-0.202731 -0.186094 0.0613306 -0.0333488 -0.999427 -0.00576682
-0.219783 -0.185487 0.0613982 -0.108204 -0.994025 -0.0143935
-0.236345 -0.18333 0.0626291 -0.283936 -0.957816 -0.0443725
-0.252672 -0.177955 0.0675159 -0.541854 -0.832621 -0.114611
-0.345525 0.806556 0.0512663 0.544625 0.838674 -0.00301119
-0.358107 0.812217 0.0468626 0.222671 0.974894 0.000181206
-0.372576 0.812217 0.0443469 -0.177268 0.984162 0.00148603
-0.386415 0.806556 0.0412011 -0.544646 0.838666 0.0011632
-0.328541 0.781393 0.0512663 0.924494 0.381189 0.00229124
-0.33546 0.795862 0.0412011 0.793934 0.608003 0.000677586
-0.39711 0.795862 0.0349105 -0.80994 0.586512 -5.67746e-005
-0.403401 0.781393 0.0412011 -0.94279 0.333353 -0.00474278
-0.324137 0.765037 0.0468626 0.978667 0.205448 0.00137133
-0.405917 0.765037 0.0437169 -0.990903 0.134532 -0.00360003
-0.32225 0.748053 0.0449758 0.995583 0.0938749 0.00172043
-0.406546 0.748052 0.0443469 -0.999249 0.0387222 -0.0015813
-0.321621 0.731068 0.0443469 0.999505 0.0314469 0.000853793
-0.406546 0.731068 0.0443469 -0.999981 0.00616553 0.000683903
-0.321621 0.714084 0.0443469 0.999979 0.00626746 -0.00130585
-0.406546 0.714084 0.0443469 -1 -0 -0
-0.321621 0.697099 0.0443469 1 0 0
-0.406546 0.697099 0.0443469 -0.999981 -0.00614265 0.000203423
-0.321621 0.680115 0.0443469 0.999978 0.00655558 0.000554368
-0.406546 0.680115 0.0443469 -0.999505 -0.0314454 0.000853614
-0.321621 0.66313 0.0443469 0.999505 0.031457 0.000854626
-0.405917 0.66313 0.0449758 -0.996289 -0.0860636 0.000881699
-0.320992 0.646146 0.0437169 0.996288 0.0860773 0.000878983
-0.40403 0.646146 0.0468626 -0.987528 -0.157439 0.00138778
-0.319104 0.629162 0.04183 0.987665 0.156582 -0.000873432
-0.400255 0.629161 0.0506374 -0.977348 -0.211511 0.00731412
-0.310927 0.595192 0.0506374 0.977734 0.209843 -0.00125045
-0.315331 0.612177 0.0380563 0.977734 0.209845 -0.00125006
-0.395853 0.612177 0.0380563 -0.977629 -0.210329 0.00163863
-0.392078 0.595192 0.04183 -0.987787 -0.155774 0.00338139
-0.307153 0.578209 0.0468626 0.987664 0.156586 -0.000873681
-0.390191 0.578208 0.0437169 -0.996368 -0.0850544 0.00402266
-0.305265 0.561224 0.0449758 0.996288 0.0860751 0.000879294
-0.389562 0.561224 0.0443469 -0.99952 -0.0309239 0.00195051
-0.304636 0.544239 0.0443469 0.999551 0.0299618 0.000494859
-0.389562 0.544239 0.0443469 -0.999981 -0.00605963 -0.000652779
-0.304636 0.527254 0.0443469 0.999925 -0.0112886 -0.00464016
-0.389562 0.527254 0.0443469 -0.999981 -0.00614266 0.00020342
-0.304771 0.510203 0.0442792 0.995673 -0.0895238 -0.0249041
-0.389562 0.510271 0.0443469 -0.999254 -0.038573 0.00182319
-0.306515 0.493378 0.0431827 0.963834 -0.258385 -0.0652854
-0.388933 0.493286 0.0449758 -0.990454 -0.137706 0.00609102
-0.313287 0.476181 0.0396714 0.842294 -0.529413 -0.101306
-0.386376 0.477051 0.0472625 -0.935527 -0.35296 0.0144656
-0.325056 0.462276 0.0441261 0.604057 -0.786614 -0.127882
-0.336083 0.455767 0.0481174 0.375129 -0.917503 -0.132158
-0.350128 0.452053 0.0444541 0.0705674 -0.99433 -0.0795448
-0.379806 0.463059 0.053023 -0.763192 -0.646152 -0.00503588
-0.367797 0.453925 0.0435836 -0.394853 -0.918019 -0.0365101
0.388579 -0.110604 0.0474916 0.598356 0.801224 0.0030218
0.374111 -0.104314 0.0449758 0.33043 0.943821 0.00427085
0.357756 -0.101797 0.0443469 0.138025 0.990404 0.00692909
0.340771 -0.101168 0.0443469 0.0409371 0.999162 6.29259e-005
0.323786 -0.101168 0.0443469 0.00484947 0.999988 -9.56065e-009
0.306802 -0.101168 0.0443469 -0 1 -0
0.289818 -0.101168 0.0443469 0 1 0
0.272833 -0.101168 0.0443469 0 1 0
0.255848 -0.101168 0.0443469 -4.07028e-020 1 -4.48538e-017
0.238864 -0.101168 0.0443469 4.40766e-018 1 1.18977e-016
0.22188 -0.101168 0.0443469 -5.67384e-017 1 -6.32894e-017
0.204895 -0.101168 0.0443469 1.41587e-017 1 5.21269e-018
0.187911 -0.101168 0.0443469 1.41587e-017 1 -5.19082e-018
0.170926 -0.101168 0.0443469 -5.67408e-017 1 -8.36202e-017
0.153942 -0.101168 0.0443469 4.40768e-018 1 -1.18977e-016
0.136958 -0.101168 0.0443469 1.41587e-017 1 -5.21269e-018
0.119973 -0.101168 0.0443469 0 1 0
0.102988 -0.101168 0.0443469 -4.95864e-017 1 -4.29633e-017
0.0860037 -0.101168 0.0443469 0 1 0
0.0690199 -0.101168 0.0443469 -1.4146e-017 1 -1.10925e-016
0.0520352 -0.101168 0.0443469 4.9625e-017 1 -1.03949e-016
0.0350504 -0.101168 0.0443469 1.85371e-017 1 1.09359e-016
0.0180667 -0.101168 0.0443469 -0 1 -0
0.00108196 -0.101168 0.0443469 1.39475e-016 1 -1.44654e-025
-0.0159028 -0.101168 0.0443469 1.85371e-017 1 1.09358e-016
-0.0328865 -0.101168 0.0443469 -0 1 -0
-0.0498713 -0.101168 0.0443469 0 1 0
-0.066856 -0.101168 0.0443469 -1.85429e-017 1 -1.67017e-016
-0.0838408 -0.101168 0.0443469 1.85307e-017 1 5.12856e-017
-0.100824 -0.101168 0.0443469 -1.41587e-017 1 5.21269e-018
-0.117809 -0.101168 0.0443469 0 1 0
-0.134794 -0.101168 0.0443469 -1.41587e-017 1 -5.21269e-018
-0.151778 -0.101168 0.0443469 -0 1 -0
-0.168762 -0.101168 0.0443469 5.67386e-017 1 -1.01655e-017
-0.185747 -0.101168 0.0443469 -0.00437983 0.99999 0.000309078
-0.202731 -0.101168 0.0443469 -0.0351918 0.999369 -0.00489456
-0.219716 -0.101719 0.0443469 -0.128044 0.99168 -0.0132213
-0.236094 -0.104089 0.0438075 -0.318257 0.947407 -0.0336405
0.399273 -0.121298 0.0537821 0.833794 0.552076 -0.000162092
-0.250585 -0.110391 0.0413812 -0.589153 0.806845 -0.0435898
-0.261257 -0.121231 0.0350001 -0.831222 0.554965 -0.0329266
0.404935 -0.135767 0.0468626 0.980402 0.197007 5.84148e-005
-0.267019 -0.135632 0.0420102 -0.977007 0.204317 -0.0609303
0.404935 -0.151494 0.04183 0.980402 -0.197008 -5.84516e-005
-0.267457 -0.15145 0.0470199 -0.977265 -0.192379 -0.0891247
0.399273 -0.165963 0.0349105 0.833794 -0.552075 0.000162061
-0.262625 -0.166187 0.0543569 -0.820883 -0.558447 -0.119533
0.388579 -0.176657 0.0412011 0.598346 -0.801232 -0.00302046
0.374111 -0.182948 0.0437169 0.33042 -0.943824 -0.00427142
0.357756 -0.185464 0.0443469 0.137903 -0.990445 -0.00122355
0.340771 -0.186094 0.0443469 0.0409428 -0.999161 -6.24731e-005
0.323786 -0.186094 0.0443469 0.00485751 -0.999988 -9.57649e-009
0.306802 -0.186094 0.0443469 2.8236e-017 -1 7.91291e-017
0.289818 -0.186094 0.0443469 3.41492e-017 -1 2.42624e-016
0.272833 -0.186094 0.0443469 -2.83166e-017 -1 -9.31981e-018
0.255848 -0.186094 0.0443469 8.81536e-018 -1 -2.37932e-016
0.238864 -0.186094 0.0443469 2.8236e-017 -1 7.92276e-017
0.22188 -0.186094 0.0443469 3.38171e-017 -1 -1.0917e-016
0.204895 -0.186094 0.0443469 -2.83988e-017 -1 -1.00046e-016
0.187911 -0.186094 0.0443469 -2.83174e-017 -1 1.03816e-017
0.170926 -0.186094 0.0443469 3.38258e-017 -1 -2.7181e-016
0.153942 -0.186094 0.0443469 -8.81535e-018 -1 2.37954e-016
0.136958 -0.186094 0.0443469 -3.17481e-017 -1 -1.06979e-016
0.119973 -0.186094 0.0443469 3.26445e-016 -1 1.0031e-016
0.102988 -0.186094 0.0443469 -1.98357e-016 -1 7.28867e-017
0.0860037 -0.186094 0.0443469 -2.53986e-020 -1 -2.32292e-016
0.0690199 -0.186094 0.0443469 2.8292e-017 -1 2.21851e-016
0.0520352 -0.186094 0.0443469 -8.94539e-017 -1 -1.0917e-016
0.0350504 -0.186094 0.0443469 2.8292e-017 -1 -2.21856e-016
0.0180667 -0.186094 0.0443469 2.8292e-017 -1 2.21853e-016
0.00108196 -0.186094 0.0443469 3.60342e-017 -1 1.54217e-016
-0.0159028 -0.186094 0.0443469 3.70741e-017 -1 2.18716e-016
-0.0328865 -0.186094 0.0443469 2.83047e-017 -1 1.05718e-016
-0.0498713 -0.186094 0.0443469 -2.12792e-016 -1 7.99583e-017
-0.066856 -0.186094 0.0443469 2.83166e-017 -1 9.33075e-018
-0.0838408 -0.186094 0.0443469 -8.74402e-018 -1 -9.21349e-017
-0.100824 -0.186094 0.0443469 -8.744e-018 -1 9.21513e-017
-0.117809 -0.186094 0.0443469 -0 -1 -0
-0.134794 -0.186094 0.0443469 8.81531e-018 -1 -2.37976e-016
-0.151778 -0.186094 0.0443469 8.81533e-018 -1 2.37976e-016
-0.168762 -0.186094 0.0443469 -3.38178e-017 -1 -8.42161e-018
-0.185747 -0.186094 0.0443469 -0.00485801 -0.999988 -9.57484e-009
-0.202731 -0.186094 0.0443469 -0.0381851 -0.99927 0.00109298
-0.219716 -0.185464 0.0443469 -0.129893 -0.991527 -0.00129459
-0.236207 -0.182993 0.0451101 -0.315015 -0.948913 -0.0181579
-0.250987 -0.176881 0.0480664 -0.574725 -0.816338 -0.0572985
-0.345525 0.806556 0.0342816 0.544625 0.838674 -0.0030112
-0.358107 0.812217 0.0298779 0.222671 0.974894 0.000181141
-0.372576 0.812217 0.0273621 -0.177268 0.984162 0.00148593
-0.386415 0.806556 0.0242163 -0.544646 0.838665 0.0011631
-0.328541 0.781393 0.0342816 0.924494 0.381189 0.00229119
-0.33546 0.795862 0.0242163 0.793934 0.608003 0.000677369
-0.39711 0.795862 0.0179258 -0.80994 0.586512 -5.69033e-005
-0.403401 0.781393 0.0242163 -0.94279 0.333353 -0.00474277
-0.324137 0.765037 0.0298779 0.978667 0.205448 0.00137111
-0.405917 0.765037 0.0267331 -0.990903 0.134532 -0.00360002
-0.32225 0.748053 0.027991 0.995583 0.0938749 0.00172037
-0.406546 0.748052 0.0273621 -0.999249 0.0387222 -0.0015814
-0.321621 0.731068 0.0273621 0.999505 0.0314469 0.000853721
-0.406546 0.731068 0.0273621 -0.999986 0.00537913 6.73207e-005
-0.321621 0.714084 0.0273621 0.999979 0.00626748 -0.00130588
-0.406546 0.714084 0.0273621 -1 -0 -0
-0.321621 0.697099 0.0273621 1 -0 0
-0.406546 0.697099 0.0273621 -0.999984 -0.00563363 -0.000434273
-0.321621 0.680115 0.0273621 0.999978 0.00655557 0.000554361
-0.406546 0.680115 0.0273621 -0.999505 -0.0314453 0.000853542
-0.321621 0.66313 0.0273621 0.999505 0.031457 0.000854641
-0.405917 0.66313 0.027991 -0.996289 -0.0860636 0.000881655
-0.320992 0.646146 0.0267331 0.996288 0.0860773 0.000878845
-0.40403 0.646146 0.0298779 -0.987666 -0.156574 -0.000875353
-0.319104 0.629162 0.0248463 0.987665 0.156582 -0.000873386
-0.400255 0.629161 0.0336526 -0.97769 -0.210053 -0.000318517
-0.310927 0.595192 0.0336526 0.977734 0.209843 -0.00125046
-0.315331 0.612177 0.0210716 0.977734 0.209845 -0.00125009
-0.395853 0.612177 0.0210716 -0.977735 -0.209844 -0.00096518
-0.392078 0.595192 0.0248463 -0.987679 -0.156492 -0.000385851
-0.307153 0.578209 0.0298779 0.987664 0.156586 -0.000873648
-0.390191 0.578208 0.0267331 -0.996298 -0.0859516 0.00129394
-0.305265 0.561224 0.027991 0.996288 0.0860751 0.000879251
-0.389562 0.561224 0.0273621 -0.999506 -0.0314145 0.000979267
-0.304636 0.544239 0.0273621 0.99961 0.0279275 0.000336184
-0.389562 0.544239 0.0273621 -0.999986 -0.0053785 -6.73154e-005
-0.304636 0.527254 0.0273621 0.999733 -0.0223227 -0.00600414
-0.389562 0.527254 0.0273621 -0.999984 -0.00563364 -0.000434274
-0.305063 0.510135 0.0270695 0.992966 -0.116527 -0.0209727
-0.389562 0.510271 0.0273621 -0.999289 -0.0376653 0.00142065
-0.307427 0.493424 0.025192 0.956412 -0.288691 -0.0439764
-0.388933 0.493286 0.027991 -0.991311 -0.131462 0.00443297
-0.313942 0.478271 0.0188109 0.845016 -0.53227 -0.0513477
-0.386537 0.477038 0.0302507 -0.932105 -0.362046 0.0101086
-0.325032 0.465328 0.0258793 0.644055 -0.76153 -0.0725528
-0.341572 0.455571 0.0302725 0.304947 -0.949979 -0.0674302
-0.380485 0.463351 0.0355218 -0.765514 -0.643417 0.00157895
-0.360655 0.452311 0.0276495 -0.134026 -0.990505 -0.0306142
-0.373369 0.455362 0.0265697 -0.54782 -0.836581 -0.0050268
0.388579 -0.110604 0.0305068 0.598356 0.801224 0.00302177
0.374111 -0.104314 0.027991 0.33043 0.943821 0.00427096
0.357756 -0.101797 0.0273621 0.133251 0.991078 0.00309059
0.340771 -0.101168 0.0273621 0.0409371 0.999162 6.27035e-005
0.323786 -0.101168 0.0273621 0.00484947 0.999988 -5.16636e-011
0.306802 -0.101168 0.0273621 -1.21663e-016 1 2.36657e-023
0.289818 -0.101168 0.0273621 0 1 0
0.272833 -0.101168 0.0273621 -0 1 -0
0.255848 -0.101168 0.0273621 2.1691e-016 1 7.55465e-017
0.238864 -0.101168 0.0273621 2.24018e-017 1 7.55414e-017
0.22188 -0.101168 0.0273621 9.52071e-017 1 1.68365e-021
0.204895 -0.101168 0.0273621 -0 1 -0
0.187911 -0.101168 0.0273621 0 1 0
0.170926 -0.101168 0.0273621 9.52036e-017 1 -1.70449e-021
0.153942 -0.101168 0.0273621 -8.97917e-017 1 7.55414e-017
0.136958 -0.101168 0.0273621 4.64778e-017 1 7.55448e-017
0.119973 -0.101168 0.0273621 0 1 0
0.102988 -0.101168 0.0273621 -0 1 -0
0.0860037 -0.101168 0.0273621 -1.17625e-017 1 7.55448e-017
0.0690199 -0.101168 0.0273621 -8.06415e-017 1 8.54481e-022
0.0520352 -0.101168 0.0273621 -1.36295e-016 1 8.41232e-022
0.0350504 -0.101168 0.0273621 -1.42428e-016 1 7.55461e-017
0.0180667 -0.101168 0.0273621 0 1 0
0.00108196 -0.101168 0.0273621 -1.41924e-016 1 1.62807e-025
-0.0159028 -0.101168 0.0273621 -0 1 -0
-0.0328865 -0.101168 0.0273621 0 1 0
-0.0498713 -0.101168 0.0273621 6.28338e-017 1 4.21461e-022
-0.066856 -0.101168 0.0273621 -2.63353e-017 1 8.58845e-024
-0.0838408 -0.101168 0.0273621 -9.52448e-017 1 7.55448e-017
-0.100824 -0.101168 0.0273621 1.36269e-016 1 -8.52833e-022
-0.117809 -0.101168 0.0273621 -0 1 2.77556e-017
-0.134794 -0.101168 0.0273621 -9.52451e-017 1 1.70448e-021
-0.151778 -0.101168 0.0273621 1.17619e-017 1 7.55448e-017
-0.168762 -0.101168 0.0273621 -0 1 -0
-0.185747 -0.101168 0.0273621 -0.00484996 0.999988 -5.16579e-011
-0.202731 -0.101168 0.0273621 -0.0398388 0.999205 -0.00119965
-0.219716 -0.101797 0.0273621 -0.131498 0.991256 -0.010948
-0.236071 -0.104314 0.0267331 -0.327816 0.944626 -0.0147487
0.399273 -0.121298 0.0367974 0.833794 0.552076 -0.000162148
-0.25054 -0.110604 0.0242163 -0.597583 0.801696 -0.0133322
-0.261235 -0.121298 0.0179258 -0.833996 0.551739 -0.00593859
0.404935 -0.135767 0.0298779 0.980402 0.197007 5.84099e-005
-0.266896 -0.135767 0.0248463 -0.980184 0.197523 -0.0149401
0.404935 -0.151494 0.0248463 0.980402 -0.197008 -5.83711e-005
-0.266896 -0.151494 0.0298779 -0.98011 -0.19661 -0.0269878
0.399273 -0.165963 0.0179258 0.833794 -0.552075 0.00016206
-0.261448 -0.166008 0.0369327 -0.83127 -0.554103 -0.0442677
0.388579 -0.176657 0.0242163 0.598346 -0.801232 -0.00302048
0.374111 -0.182948 0.0267331 0.33042 -0.943824 -0.00427143
0.357756 -0.185464 0.0273621 0.13432 -0.990923 -0.00548228
0.340771 -0.186094 0.0273621 0.0409428 -0.999161 -6.26492e-005
0.323786 -0.186094 0.0273621 0.00485751 -0.999988 -5.17492e-011
0.306802 -0.186094 0.0273621 -1.09129e-017 -1 1.9597e-017
0.289818 -0.186094 0.0273621 1.79849e-016 -1 1.95914e-017
0.272833 -0.186094 0.0273621 3.70196e-016 -1 1.95948e-017
0.255848 -0.186094 0.0273621 0 -1 0
0.238864 -0.186094 0.0273621 4.48037e-017 -1 1.95903e-017
0.22188 -0.186094 0.0273621 1.29193e-017 -1 1.95983e-017
0.204895 -0.186094 0.0273621 1.34179e-016 -1 6.16239e-017
0.187911 -0.186094 0.0273621 -3.8097e-016 -1 1.95902e-017
0.170926 -0.186094 0.0273621 -1.4554e-016 -1 1.95846e-017
0.153942 -0.186094 0.0273621 2.08172e-016 -1 6.16374e-017
0.136958 -0.186094 0.0273621 1.26852e-016 -1 1.95835e-017
0.119973 -0.186094 0.0273621 -1.45433e-016 -1 1.95846e-017
0.102988 -0.186094 0.0273621 4.33945e-016 -1 1.95948e-017
0.0860037 -0.186094 0.0273621 1.64601e-017 -1 6.16408e-017
0.0690199 -0.186094 0.0273621 -1.90489e-016 -1 1.95936e-017
0.0520352 -0.186094 0.0273621 -5.17814e-017 -1 5.18383e-017
0.0350504 -0.186094 0.0273621 2.42601e-016 -1 6.16357e-017
0.0180667 -0.186094 0.0273621 -7.60664e-017 -1 1.95911e-017
0.00108196 -0.186094 0.0273621 -2.83849e-016 -1 1.95923e-017
-0.0159028 -0.186094 0.0273621 2.80959e-016 -1 6.16373e-017
-0.0328865 -0.186094 0.0273621 2.75706e-016 -1 1.95911e-017
-0.0498713 -0.186094 0.0273621 5.26687e-017 -1 1.95931e-017
-0.066856 -0.186094 0.0273621 1.90362e-016 -1 1.9588e-017
-0.0838408 -0.186094 0.0273621 1.74274e-016 -1 6.16339e-017
-0.100824 -0.186094 0.0273621 1.9049e-016 -1 1.95903e-017
-0.117809 -0.186094 0.0273621 -2.00188e-031 -1 -2.04704e-017
-0.134794 -0.186094 0.0273621 -5.28398e-017 -1 1.95834e-017
-0.151778 -0.186094 0.0273621 4.08411e-017 -1 6.16306e-017
-0.168762 -0.186094 0.0273621 -1.36314e-017 -1 -7.27863e-017
-0.185747 -0.186094 0.0273621 -0.004858 -0.999988 -5.17435e-011
-0.202731 -0.186094 0.0273621 -0.0386924 -0.99925 0.00135549
-0.219716 -0.185464 0.0273621 -0.134124 -0.990962 0.00219222
-0.236071 -0.182948 0.027991 -0.327251 -0.944937 -0.00127112
-0.250607 -0.176679 0.0305745 -0.594383 -0.804023 -0.0159928
-0.345525 0.806556 0.0172968 0.544625 0.838674 -0.00301123
-0.358107 0.812217 0.0128942 0.222671 0.974894 0.000181209
-0.372576 0.812217 0.0103773 -0.177268 0.984161 0.00148592
-0.386415 0.806556 0.0072326 -0.544646 0.838666 0.00116322
-0.328541 0.781393 0.0172968 0.924494 0.381189 0.00229122
-0.33546 0.795862 0.0072326 0.793934 0.608003 0.000677586
-0.39711 0.795862 0.000942062 -0.80994 0.586513 -5.6593e-005
-0.403401 0.781393 0.0072326 -0.94279 0.333353 -0.00474277
-0.324137 0.765037 0.0128942 0.978667 0.205448 0.00137135
-0.405917 0.765037 0.00974839 -0.990903 0.134532 -0.00360013
-0.32225 0.748053 0.0110063 0.995583 0.0938749 0.00172036
-0.406546 0.748052 0.0103773 -0.999249 0.0387222 -0.00158138
-0.321621 0.731068 0.0103773 0.999505 0.0314469 0.00085372
-0.406546 0.731068 0.0103773 -0.999981 0.00614265 -0.000203421
-0.321621 0.714084 0.0103773 0.999978 0.0065556 0.000554349
-0.406546 0.714084 0.0103773 -1 -0 -0
-0.321621 0.697099 0.0103773 1 -0 0
-0.406546 0.697099 0.0103773 -0.999981 -0.00616552 -0.000683919
-0.321621 0.680115 0.0103773 0.999979 0.00626743 -0.00130583
-0.406546 0.680115 0.0103773 -0.999505 -0.0314453 0.00085354
-0.321621 0.66313 0.0103773 0.999505 0.031457 0.000854636
-0.405917 0.66313 0.0110063 -0.996289 -0.0860636 0.00088159
-0.320992 0.646146 0.00974839 0.996288 0.0860773 0.000878914
-0.40403 0.646146 0.0128942 -0.987666 -0.156574 -0.000875395
-0.319104 0.629162 0.00786154 0.987665 0.156582 -0.000873485
-0.400255 0.629161 0.0166679 -0.977734 -0.209846 -0.00124873
-0.310927 0.595192 0.0166679 0.977734 0.209843 -0.00125028
-0.315331 0.612177 0.00408681 0.977734 0.209845 -0.00125018
-0.395853 0.612177 0.00408681 -0.977734 -0.209846 -0.00124879
-0.392078 0.595192 0.00786154 -0.987666 -0.156574 -0.000875427
-0.307153 0.578209 0.0128942 0.987664 0.156586 -0.000873691
-0.390191 0.578208 0.00974839 -0.996289 -0.0860641 0.000881582
-0.305265 0.561224 0.0110063 0.996288 0.0860751 0.000879185
-0.389562 0.561224 0.0103773 -0.999505 -0.0314473 0.000853547
-0.304636 0.544239 0.0103773 0.999662 0.0259876 0.000450036
-0.389562 0.544239 0.0103773 -0.999981 -0.006142 0.000203406
-0.304636 0.527254 0.0103773 0.999561 -0.029273 -0.00446999
-0.389562 0.527254 0.0103773 -0.999981 -0.00616553 -0.00068392
-0.305243 0.510203 0.00983794 0.991812 -0.126998 -0.013463
-0.389562 0.510271 0.0103773 -0.99927 -0.0381853 0.00135867
-0.307737 0.49378 0.0074117 0.951958 -0.305474 -0.0214867
-0.388933 0.493286 0.0110063 -0.991462 -0.130383 0.00187885
-0.314051 0.478749 0.00103161 0.846363 -0.532485 -0.0113703
-0.38651 0.476961 0.0134284 -0.934462 -0.356011 0.00599712
-0.324856 0.466067 0.00754707 0.659875 -0.751067 -0.0215108
-0.339828 0.456654 0.0104586 0.369926 -0.928812 -0.0215139
-0.381015 0.463379 0.0189733 -0.752456 -0.658641 -0.00162572
-0.356485 0.452426 0.0113707 -0.0487283 -0.998756 -0.010616
-0.371241 0.454538 0.0128171 -0.496756 -0.86787 -0.00593278
0.388579 -0.110604 0.0135231 0.598356 0.801224 0.00302187
0.374111 -0.104314 0.0110063 0.33043 0.943821 0.00427092
0.357756 -0.101797 0.0103773 0.137903 0.990445 0.00121921
0.340771 -0.101168 0.0103773 0.0409371 0.999162 6.24898e-005
0.323786 -0.101168 0.0103773 0.00484947 0.999988 9.59091e-009
0.306802 -0.101168 0.0103773 0 1 0
0.289818 -0.101168 0.0103773 -0 1 -0
0.272833 -0.101168 0.0103773 -0 1 -0
0.255848 -0.101168 0.0103773 -4.17037e-020 1 4.48576e-017
0.238864 -0.101168 0.0103773 2.0852e-020 1 2.24069e-017
0.22188 -0.101168 0.0103773 -5.67384e-017 1 -3.84694e-017
0.204895 -0.101168 0.0103773 -1.41381e-017 1 -1.71933e-017
0.187911 -0.101168 0.0103773 -1.41381e-017 1 1.71659e-017
0.170926 -0.101168 0.0103773 -5.67406e-017 1 -1.81386e-017
0.153942 -0.101168 0.0103773 2.08519e-020 1 -2.24178e-017
0.136958 -0.101168 0.0103773 -1.41381e-017 1 1.71933e-017
0.119973 -0.101168 0.0103773 -0 1 -0
0.102988 -0.101168 0.0103773 -4.95898e-017 1 3.97174e-018
0.0860037 -0.101168 0.0103773 -0 1 -0
0.0690199 -0.101168 0.0103773 1.85384e-017 1 -4.24485e-017
0.0520352 -0.101168 0.0103773 4.9625e-017 1 2.19021e-018
0.0350504 -0.101168 0.0103773 -1.146e-017 1 7.42792e-018
0.0180667 -0.101168 0.0103773 0 1 0
0.00108196 -0.101168 0.0103773 1.39475e-016 1 -2.83039e-017
-0.0159028 -0.101168 0.0103773 -1.146e-017 1 7.42861e-018
-0.0328865 -0.101168 0.0103773 0 1 0
-0.0498713 -0.101168 0.0103773 -0 1 -0
-0.066856 -0.101168 0.0103773 1.14532e-017 1 5.02271e-017
-0.0838408 -0.101168 0.0103773 -1.14665e-017 1 6.55016e-017
-0.100824 -0.101168 0.0103773 1.41381e-017 1 -1.71878e-017
-0.117809 -0.101168 0.0103773 0 1 0
-0.134794 -0.101168 0.0103773 1.41381e-017 1 1.71878e-017
-0.151778 -0.101168 0.0103773 0 1 0
-0.168762 -0.101168 0.0103773 5.67386e-017 1 1.01655e-017
-0.185747 -0.101168 0.0103773 -0.00484996 0.999988 9.58926e-009
-0.202731 -0.101168 0.0103773 -0.0409372 0.999162 -6.29436e-005
-0.219716 -0.101797 0.0103773 -0.137672 0.990443 -0.00832241
-0.236071 -0.104314 0.00974839 -0.329969 0.943971 -0.00633156
0.399273 -0.121298 0.0198137 0.833794 0.552076 -0.000162063
-0.25054 -0.110604 0.0072326 -0.598303 0.801258 -0.00429529
-0.261235 -0.121298 0.000942062 -0.833794 0.552075 -0.00019102
0.404935 -0.135767 0.0128942 0.980402 0.197007 5.86064e-005
-0.266896 -0.135767 0.00786154 -0.980411 0.196957 -0.0011273
0.404935 -0.151494 0.00786154 0.980402 -0.197008 -5.83776e-005
-0.266896 -0.151494 0.0128942 -0.980447 -0.196742 -0.00395122
0.399273 -0.165963 0.000942062 0.833794 -0.552075 0.000162119
-0.261235 -0.165963 0.0198137 -0.833354 -0.552652 -0.00985524
0.388579 -0.176657 0.0072326 0.598346 -0.801232 -0.00302045
0.374111 -0.182948 0.00974839 0.33042 -0.943824 -0.00427154
0.357756 -0.185464 0.0103773 0.138025 -0.990405 -0.00692888
0.340771 -0.186094 0.0103773 0.0409428 -0.999161 -6.28638e-005
0.323786 -0.186094 0.0103773 0.00485751 -0.999988 9.6068e-009
0.306802 -0.186094 0.0103773 -2.83596e-017 -1 -5.51754e-017
0.289818 -0.186094 0.0103773 3.41389e-017 -1 -1.43128e-016
0.272833 -0.186094 0.0103773 2.82754e-017 -1 3.32706e-017
0.255848 -0.186094 0.0103773 4.17037e-020 -1 -4.48576e-017
0.238864 -0.186094 0.0103773 -2.83596e-017 -1 -5.52411e-017
0.22188 -0.186094 0.0103773 3.38174e-017 -1 -1.43107e-016
0.204895 -0.186094 0.0103773 3.1593e-017 -1 -1.33519e-016
0.187911 -0.186094 0.0103773 2.82762e-017 -1 -3.43318e-017
0.170926 -0.186094 0.0103773 3.38246e-017 -1 1.95333e-017
0.153942 -0.186094 0.0103773 -4.17038e-020 -1 4.48357e-017
0.136958 -0.186094 0.0103773 3.70194e-017 -1 5.77619e-017
0.119973 -0.186094 0.0103773 3.26435e-016 -1 -8.14435e-019
0.102988 -0.186094 0.0103773 -1.98341e-016 -1 -6.17758e-017
0.0860037 -0.186094 0.0103773 -8.80066e-018 -1 -5.0505e-017
0.0690199 -0.186094 0.0103773 -3.70768e-017 -1 8.4897e-017
0.0520352 -0.186094 0.0103773 -8.94543e-017 -1 -1.43106e-016
0.0350504 -0.186094 0.0103773 -3.70768e-017 -1 -8.48888e-017
0.0180667 -0.186094 0.0103773 -3.70768e-017 -1 8.48915e-017
0.00108196 -0.186094 0.0103773 3.60342e-017 -1 -1.43106e-016
-0.0159028 -0.186094 0.0103773 -2.292e-017 -1 1.48572e-017
-0.0328865 -0.186094 0.0103773 -2.82892e-017 -1 -8.17581e-017
-0.0498713 -0.186094 0.0103773 -2.12802e-016 -1 1.95374e-017
-0.066856 -0.186094 0.0103773 -2.82754e-017 -1 -3.32816e-017
-0.0838408 -0.186094 0.0103773 -5.34312e-018 -1 -1.65401e-016
-0.100824 -0.186094 0.0103773 -5.34315e-018 -1 1.65368e-016
-0.117809 -0.186094 0.0103773 -0 -1 -0
-0.134794 -0.186094 0.0103773 4.17041e-020 -1 -4.47919e-017
-0.151778 -0.186094 0.0103773 4.1704e-020 -1 4.48138e-017
-0.168762 -0.186094 0.0103773 -3.38174e-017 -1 1.95327e-017
-0.185747 -0.186094 0.0103773 -0.00485801 -0.999988 9.60515e-009
-0.202731 -0.186094 0.0103773 -0.0409429 -0.999161 6.24121e-005
-0.219716 -0.185464 0.0103773 -0.137701 -0.990473 0.00106847
-0.236071 -0.182948 0.0110063 -0.330111 -0.943936 0.00347391
-0.25054 -0.176657 0.0135231 -0.598017 -0.801483 -0.000140367
-0.345525 0.806556 0.000313113 0.544625 0.838674 -0.00301119
-0.358107 0.812217 -0.00409057 0.222671 0.974894 0.000181206
-0.372576 0.812217 -0.00660637 -0.177268 0.984162 0.00148603
-0.386415 0.806556 -0.00975216 -0.544646 0.838666 0.0011632
-0.328541 0.781393 0.000313113 0.924494 0.381189 0.00229125
-0.33546 0.795862 -0.00975216 0.793934 0.608003 0.000677586
-0.39711 0.795862 -0.0160427 -0.80994 0.586512 -5.67738e-005
-0.403401 0.781393 -0.00975216 -0.94279 0.333353 -0.00474278
-0.324137 0.765037 -0.00409057 0.978667 0.205448 0.00137133
-0.405917 0.765037 -0.00723636 -0.990903 0.134532 -0.00360003
-0.32225 0.748053 -0.00597742 0.995583 0.0938749 0.00172043
-0.406546 0.748052 -0.00660637 -0.999249 0.0387222 -0.0015813
-0.321621 0.731068 -0.00660637 0.999505 0.0314469 0.000853793
-0.406546 0.731068 -0.00660637 -0.999981 0.00616553 0.000683903
-0.321621 0.714084 -0.00660637 0.999979 0.00626746 -0.00130585
-0.406546 0.714084 -0.00660637 -1 -0 -0
-0.321621 0.697099 -0.00660637 1 0 0
-0.406546 0.697099 -0.00660637 -0.999981 -0.00614265 0.000203423
-0.321621 0.680115 -0.00660637 0.999978 0.00655558 0.000554368
-0.406546 0.680115 -0.00660637 -0.999505 -0.0314454 0.000853614
-0.321621 0.66313 -0.00660637 0.999505 0.031457 0.000854626
-0.405917 0.66313 -0.00597742 -0.996289 -0.0860636 0.000881656
-0.320992 0.646146 -0.00723636 0.996288 0.0860773 0.000878906
-0.40403 0.646146 -0.00409057 -0.987666 -0.156574 -0.000875434
-0.319104 0.629162 -0.00912321 0.987665 0.156582 -0.000873497
-0.400255 0.629161 -0.000316878 -0.977734 -0.209846 -0.00124869
-0.310927 0.595192 -0.000316878 0.977734 0.209843 -0.00125023
-0.315331 0.612177 -0.0128969 0.977734 0.209845 -0.00125006
-0.395853 0.612177 -0.0128969 -0.977734 -0.209846 -0.00124868
-0.392078 0.595192 -0.00912321 -0.987666 -0.156574 -0.000875439
-0.307153 0.578209 -0.00409057 0.987664 0.156586 -0.000873729
-0.390191 0.578208 -0.00723636 -0.996289 -0.0860641 0.000881573
-0.305265 0.561224 -0.00597742 0.996288 0.0860751 0.000879251
-0.389562 0.561224 -0.00660637 -0.999505 -0.0314473 0.000853536
-0.304636 0.544239 -0.00660637 0.999684 0.025113 0.00057305
-0.389562 0.544239 -0.00660637 -0.999981 -0.00616487 -0.000683881
-0.304636 0.527254 -0.00660637 0.999491 -0.0318088 -0.00243691
-0.389562 0.527254 -0.00660637 -0.999981 -0.00614266 0.00020342
-0.305265 0.51027 -0.00723636 0.991403 -0.130671 -0.00673948
-0.389562 0.510271 -0.00660637 -0.999248 -0.0387337 0.00158254
-0.307782 0.493915 -0.00975216 0.952323 -0.305064 -0.00407519
-0.388933 0.493286 -0.00597742 -0.990859 -0.134875 0.00273098
-0.314073 0.478817 -0.0160427 0.851036 -0.524903 0.0146201
-0.386416 0.47693 -0.00346162 -0.935506 -0.353309 -0.000694108
-0.324767 0.466236 -0.00975216 0.665267 -0.746515 0.0116084
-0.339302 0.456823 -0.00716868 0.38402 -0.923298 0.00711575
-0.380472 0.463154 0.00264043 -0.75091 -0.660362 -0.00750821
