ply
format ascii 1.0
element vertex 823
property float x
property float y
property float z
property float nx
property float ny
property float nz
end_header
-0.173071 0.0746848 0.369899 1.5866e-017 -1 -1.45149e-017
-0.190014 0.0746848 0.369899 0.00484774 -0.999988 1.57769e-008
-0.206958 0.0746848 0.369899 0.0368141 -0.999318 -0.00301503
-0.223902 0.0740576 0.369899 0.125202 -0.99212 -0.00472307
-0.240353 0.0715923 0.370661 0.290901 -0.956631 0.0152961
-0.255689 0.0655153 0.373667 0.508946 -0.855636 0.094136
-0.378413 0.0663586 0.36768 -0.513661 -0.852157 0.0999024
-0.393631 0.0724663 0.369607 -0.272576 -0.960048 0.0633328
-0.410284 0.0743712 0.369899 -0.134318 -0.990587 0.0263931
-0.427227 0.075312 0.369899 -0.16253 -0.986581 0.0155656
-0.443544 0.0778228 0.370526 -0.333538 -0.942719 0.00575954
-0.457979 0.084099 0.373036 -0.607784 -0.793971 0.0144806
0.357582 0.0549368 0.379451 0.698107 -0.66411 0.267589
0.259242 0.0554538 0.361436 -0.757598 -0.649704 0.0626969
-0.269339 0.0549368 0.379451 0.698091 -0.664118 0.267614
-0.366973 0.055243 0.36118 -0.751489 -0.659009 0.0311656
0.351964 0.0401936 0.372476 0.87978 -0.390131 0.271634
0.267064 0.0409151 0.367472 -0.903735 -0.388679 0.179422
-0.274956 0.0401936 0.372476 0.879779 -0.390131 0.271637
-0.359655 0.0406863 0.367512 -0.91358 -0.382099 0.139185
0.3496 0.023855 0.369899 0.954245 -0.175317 0.24224
0.270448 0.0240563 0.368991 -0.962539 -0.168015 0.212812
-0.277321 0.023855 0.369899 0.954245 -0.175319 0.242237
-0.35645 0.0239895 0.369059 -0.969946 -0.15416 0.188253
0.348737 0.00691135 0.369272 0.973961 -0.0622531 0.218
0.271233 0.00691135 0.369272 -0.979711 -0.0477475 0.194647
-0.278183 0.00691135 0.369272 0.973961 -0.0622594 0.217999
-0.355689 0.00691135 0.369272 -0.978845 -0.0422119 0.200204
0.348502 -0.0100323 0.369272 0.978676 -0.0137731 0.204945
0.271233 -0.0100323 0.369272 -0.979401 -0.00849851 0.201747
-0.278419 -0.0100323 0.369272 0.978676 -0.0137865 0.204946
-0.355689 -0.0100323 0.369272 -0.979944 -0.00622407 0.199176
0.348424 -0.0269759 0.369272 0.979627 -0.00355609 0.200795
0.271233 -0.0269759 0.369272 -0.979921 -0.000260099 0.199386
-0.278498 -0.0269759 0.369272 0.979627 -0.00356962 0.200794
-0.355689 -0.0269759 0.369272 -0.97998 -8.8939e-008 0.199098
0.348424 -0.0439206 0.369272 0.979962 -0.00038352 0.199182
0.271233 -0.0439206 0.369272 -0.97998 8.92084e-008 0.199095
-0.278498 -0.0439206 0.369272 0.979964 -0.00038352 0.199174
-0.355689 -0.0439206 0.369272 -0.97998 8.89653e-008 0.199098
0.348424 -0.0608642 0.369272 0.979979 5.96986e-008 0.199103
0.271233 -0.0608642 0.369272 -0.97998 5.96481e-008 0.199095
-0.278498 -0.0608642 0.369272 0.97998 5.96534e-008 0.199095
-0.355689 -0.0608642 0.369272 -0.97998 5.95111e-008 0.199098
0.348424 -0.0778078 0.369272 0.979979 3.14614e-010 0.199103
0.271233 -0.0778078 0.369272 -0.97998 3.14313e-010 0.199095
-0.278498 -0.0778078 0.369272 0.97998 3.14346e-010 0.199095
-0.355689 -0.0778078 0.369272 -0.97998 3.13457e-010 0.199098
0.348424 -0.0947514 0.369272 0.979979 2.10945e-010 0.199103
0.271233 -0.0947514 0.369272 -0.97998 2.10767e-010 0.199095
-0.278498 -0.0947514 0.369272 0.97998 2.10785e-010 0.199095
-0.355689 -0.0947514 0.369272 -0.97998 2.10282e-010 0.199098
0.348424 -0.111695 0.369272 0.979979 -5.99077e-008 0.199103
0.271233 -0.111695 0.369272 -0.97998 -5.98571e-008 0.199095
-0.278498 -0.111695 0.369272 0.97998 -5.98623e-008 0.199095
-0.355689 -0.111695 0.369272 -0.97998 -5.97195e-008 0.199098
0.348424 -0.128639 0.369272 0.979979 -9.0191e-008 0.199103
0.271233 -0.128639 0.369272 -0.97998 -9.0105e-008 0.199095
-0.278498 -0.128639 0.369272 0.97998 -9.01143e-008 0.199095
-0.355689 -0.128639 0.369272 -0.97998 -8.98599e-008 0.199098
0.348424 -0.145583 0.369272 0.979979 8.80889e-008 0.199103
0.271233 -0.145583 0.369272 -0.97998 8.80048e-008 0.199095
-0.278498 -0.145583 0.369272 0.97998 8.80138e-008 0.199095
-0.355689 -0.145583 0.369272 -0.97998 8.7765e-008 0.199098
0.348424 -0.162527 0.369272 0.979979 6.11661e-008 0.199103
0.271233 -0.162527 0.369272 -0.97998 6.11143e-008 0.199095
-0.278498 -0.162527 0.369272 0.97998 6.11196e-008 0.199095
-0.355689 -0.162527 0.369272 -0.97998 6.09732e-008 0.199098
0.348424 -0.179471 0.369272 0.979979 1.68756e-009 0.199103
0.271233 -0.179471 0.369272 -0.97998 1.68613e-009 0.199095
-0.278498 -0.179471 0.369272 0.97998 1.68628e-009 0.199095
-0.355689 -0.179471 0.369272 -0.97998 1.68225e-009 0.199098
0.348424 -0.196414 0.369272 0.979979 1.25846e-009 0.199103
0.271233 -0.196414 0.369272 -0.97998 1.25726e-009 0.199095
-0.278498 -0.196414 0.369272 0.97998 1.25739e-009 0.199095
-0.355689 -0.196414 0.369272 -0.97998 1.25383e-009 0.199098
0.348424 -0.213358 0.369272 0.979979 -6.20099e-008 0.199103
0.271233 -0.213358 0.369272 -0.97998 -6.19574e-008 0.199095
-0.278498 -0.213358 0.369272 0.97998 -6.19629e-008 0.199095
-0.355689 -0.213358 0.369272 -0.97998 -6.18144e-008 0.199098
0.348424 -0.230301 0.369272 0.979979 -9.14495e-008 0.199103
0.271233 -0.230301 0.369272 -0.97998 -9.13623e-008 0.199095
-0.278498 -0.230301 0.369272 0.97998 -9.13717e-008 0.199095
-0.355689 -0.230301 0.369272 -0.97998 -9.11137e-008 0.199098
0.348424 -0.247246 0.369272 0.979979 8.97619e-008 0.199103
0.271233 -0.247246 0.369272 -0.97998 8.96762e-008 0.199095
-0.278498 -0.247246 0.369272 0.97998 8.96854e-008 0.199095
-0.355689 -0.247246 0.369272 -0.97998 8.94314e-008 0.199098
0.348424 -0.26419 0.369272 0.979979 6.03368e-008 0.199103
0.271233 -0.26419 0.369272 -0.97998 6.02859e-008 0.199095
-0.278498 -0.26419 0.369272 0.97998 6.02912e-008 0.199095
-0.355689 -0.26419 0.369272 -0.97998 6.01479e-008 0.199098
0.348424 -0.281133 0.369272 0.979979 1.67313e-009 0.199103
0.271233 -0.281133 0.369272 -0.97998 1.67144e-009 0.199095
-0.278498 -0.281133 0.369272 0.97998 1.67163e-009 0.199095
-0.355689 -0.281133 0.369272 -0.97998 1.66653e-009 0.199098
0.348424 -0.298077 0.369272 0.979979 -8.29355e-010 0.199103
0.271233 -0.298077 0.369272 -0.97998 -8.28379e-010 0.199095
-0.278498 -0.298077 0.369272 0.97998 -8.28489e-010 0.199095
-0.355689 -0.298077 0.369272 -0.97998 -8.25404e-010 0.199098
0.348424 -0.315021 0.369272 0.979979 -5.99222e-008 0.199103
0.271233 -0.315021 0.369272 -0.97998 -5.98718e-008 0.199095
-0.278498 -0.315021 0.369272 0.97998 -5.9877e-008 0.199095
-0.355689 -0.315021 0.369272 -0.97998 -5.97352e-008 0.199098
0.348424 -0.331964 0.369272 0.979979 -9.1435e-008 0.199103
0.271233 -0.331964 0.369272 -0.97998 -9.13476e-008 0.199095
-0.278498 -0.331964 0.369272 0.97998 -9.1357e-008 0.199095
-0.355689 -0.331964 0.369272 -0.97998 -9.1098e-008 0.199098
0.348424 -0.348909 0.369272 0.979979 9.1435e-008 0.199103
0.271233 -0.348909 0.369272 -0.97998 9.13476e-008 0.199095
-0.278498 -0.348909 0.369272 0.97998 9.1357e-008 0.199095
-0.355689 -0.348909 0.369272 -0.97998 9.1098e-008 0.199098
0.348424 -0.365853 0.369272 0.979979 5.99222e-008 0.199103
0.271233 -0.365853 0.369272 -0.97998 5.98718e-008 0.199095
-0.278498 -0.365853 0.369272 0.97998 5.9877e-008 0.199095
-0.355689 -0.365853 0.369272 -0.97998 5.97352e-008 0.199098
0.348424 -0.382796 0.369272 0.979979 8.29355e-010 0.199103
0.271233 -0.382796 0.369272 -0.97998 8.28379e-010 0.199095
-0.278498 -0.382796 0.369272 0.97998 8.28489e-010 0.199095
-0.355689 -0.382796 0.369272 -0.97998 8.25404e-010 0.199098
0.348424 -0.39974 0.369272 0.979979 -5.98933e-008 0.199103
0.271233 -0.39974 0.369272 -0.97998 -5.98424e-008 0.199095
-0.278498 -0.39974 0.369272 0.97998 -5.98477e-008 0.199095
-0.355689 -0.39974 0.369272 -0.97998 -5.97037e-008 0.199098
0.348424 -0.416683 0.369272 0.979979 -8.72596e-008 0.199103
0.271233 -0.416683 0.369272 -0.97998 -8.71765e-008 0.199095
-0.278498 -0.416683 0.369272 0.97998 -8.71854e-008 0.199095
-0.355689 -0.416683 0.369272 -0.97998 -8.69397e-008 0.199098
0.348424 -0.433628 0.369272 0.979979 8.72596e-008 0.199103
0.271233 -0.433628 0.369272 -0.97998 8.71765e-008 0.199095
-0.278498 -0.433628 0.369272 0.97998 8.71854e-008 0.199095
-0.355689 -0.433628 0.369272 -0.97998 8.69397e-008 0.199098
0.348424 -0.450572 0.369272 0.979979 5.82057e-008 0.199103
0.271233 -0.450572 0.369272 -0.97998 5.81562e-008 0.199095
-0.278498 -0.450572 0.369272 0.97998 5.81614e-008 0.199095
-0.355689 -0.450572 0.369272 -0.97998 5.80214e-008 0.199098
0.348424 -0.467515 0.369272 0.979979 -3.34626e-009 0.199103
0.271233 -0.467515 0.369272 -0.97998 -3.34289e-009 0.199095
-0.278498 -0.467515 0.369272 0.97998 -3.34326e-009 0.199095
-0.355689 -0.467515 0.369272 -0.97998 -3.33306e-009 0.199098
0.348424 -0.484459 0.369272 0.979979 3.34626e-009 0.199103
0.271233 -0.484459 0.369272 -0.97998 3.34289e-009 0.199095
-0.278498 -0.484459 0.369272 0.97998 3.34326e-009 0.199095
-0.355689 -0.484459 0.369272 -0.97998 3.33306e-009 0.199098
0.348424 -0.501403 0.369272 0.979979 -6.15807e-008 0.199103
0.271233 -0.501403 0.369272 -0.97998 -6.15284e-008 0.199095
-0.278498 -0.501403 0.369272 0.97998 -6.15339e-008 0.199095
-0.355689 -0.501403 0.369272 -0.97998 -6.13859e-008 0.199098
0.348424 -0.518346 0.369272 0.979979 -8.89183e-008 0.199103
0.271233 -0.518346 0.369272 -0.97998 -8.88332e-008 0.199095
-0.278498 -0.518346 0.369272 0.97998 -8.88424e-008 0.199095
-0.355689 -0.518346 0.369272 -0.97998 -8.85905e-008 0.199098
0.348424 -0.535291 0.369272 0.979979 9.56394e-008 0.199103
0.271233 -0.535291 0.369272 -0.97998 9.55481e-008 0.199095
-0.278498 -0.535291 0.369272 0.97998 9.55579e-008 0.199095
-0.355689 -0.535291 0.369272 -0.97998 9.52877e-008 0.199098
0.348424 -0.552234 0.369272 0.979979 5.57179e-008 0.199103
0.271233 -0.552234 0.369272 -0.97998 5.56713e-008 0.199095
-0.278498 -0.552234 0.369272 0.97998 5.56761e-008 0.199095
-0.355689 -0.552234 0.369272 -0.97998 5.55455e-008 0.199098
0.348424 -0.569178 0.369272 0.979979 -3.37511e-009 0.199103
0.271233 -0.569178 0.369272 -0.97998 -3.37226e-009 0.199095
-0.278498 -0.569178 0.369272 0.97998 -3.37256e-009 0.199095
-0.355689 -0.569178 0.369272 -0.97998 -3.3645e-009 0.199098
0.348424 -0.586122 0.369272 0.979979 -4.23373e-016 0.199103
0.271233 -0.586122 0.369272 -0.97998 6.35493e-019 0.199095
-0.278498 -0.586122 0.369272 0.97998 8.39325e-017 0.199095
-0.355689 -0.586122 0.369272 -0.97998 -1.47214e-016 0.199098
0.348424 -0.603065 0.369272 0.979979 -5.40013e-008 0.199103
0.271233 -0.603065 0.369272 -0.97998 -5.39556e-008 0.199095
-0.278498 -0.603065 0.369272 0.97998 -5.39604e-008 0.199095
-0.355689 -0.603065 0.369272 -0.97998 -5.38316e-008 0.199098
0.348424 -0.620009 0.369272 0.979979 -8.05386e-008 0.199103
0.271233 -0.620009 0.369272 -0.97998 -8.04617e-008 0.199095
-0.278498 -0.620009 0.369272 0.97998 -8.047e-008 0.199095
-0.355689 -0.620009 0.369272 -0.97998 -8.02425e-008 0.199098
0.348424 -0.636954 0.369272 0.979979 8.05386e-008 0.199103
0.271233 -0.636954 0.369272 -0.97998 8.04617e-008 0.199095
-0.278498 -0.636954 0.369272 0.97998 8.047e-008 0.199095
-0.355689 -0.636954 0.369272 -0.97998 8.02425e-008 0.199098
0.348424 -0.653897 0.369272 0.979979 5.06262e-008 0.199103
0.271233 -0.653897 0.369272 -0.97998 5.05834e-008 0.199095
-0.278498 -0.653897 0.369272 0.97998 5.05878e-008 0.199095
-0.355689 -0.653897 0.369272 -0.97998 5.04671e-008 0.199098
0.348424 -0.670841 0.369272 0.979979 -1.65871e-009 0.199103
0.271233 -0.670841 0.369272 -0.97998 -1.65676e-009 0.199095
-0.278498 -0.670841 0.369272 0.97998 -1.65698e-009 0.199095
-0.355689 -0.670841 0.369272 -0.97998 -1.65081e-009 0.199098
0.348424 -0.687785 0.369272 0.979979 1.00676e-008 0.199103
0.271233 -0.687785 0.369272 -0.97998 1.0058e-008 0.199095
-0.278498 -0.687785 0.369272 0.97998 1.00591e-008 0.199095
-0.355689 -0.687785 0.369272 -0.97998 1.00306e-008 0.199098
0.348424 -0.704728 0.369272 0.979979 -5.90351e-008 0.199103
0.271233 -0.704728 0.369272 -0.97998 -5.89846e-008 0.199095
-0.278498 -0.704728 0.369272 0.97998 -5.89899e-008 0.199095
-0.355689 -0.704728 0.369272 -0.97998 -5.88469e-008 0.199098
0.348424 -0.721672 0.369272 0.979979 -8.89471e-008 0.199103
0.271233 -0.721672 0.369272 -0.97998 -8.88626e-008 0.199095
-0.278498 -0.721672 0.369272 0.97998 -8.88717e-008 0.199095
-0.355689 -0.721672 0.369272 -0.97998 -8.86219e-008 0.199098
0.348424 -0.738616 0.369272 0.979979 8.89471e-008 0.199103
0.271233 -0.738616 0.369272 -0.97998 8.88626e-008 0.199095
-0.278498 -0.738616 0.369272 0.97998 8.88717e-008 0.199095
-0.355689 -0.738616 0.369272 -0.97998 8.86219e-008 0.199098
0.348424 -0.75556 0.369272 0.979979 6.24102e-008 0.199103
0.271233 -0.75556 0.369272 -0.97998 6.23569e-008 0.199095
-0.278498 -0.75556 0.369272 0.97998 6.23624e-008 0.199095
-0.355689 -0.75556 0.369272 -0.97998 6.22114e-008 0.199098
0.348424 -0.772504 0.369272 0.979979 -0.00115761 0.199098
0.271233 -0.772504 0.369272 -0.979971 -0.000246327 0.199142
-0.278498 -0.772504 0.369272 0.979981 -0.00115756 0.19909
-0.355689 -0.772504 0.369272 -0.980281 0.00250636 0.197593
0.348424 -0.789447 0.369272 0.979822 -0.00333532 0.199843
0.271233 -0.789447 0.369272 -0.98005 -0.00683374 0.198632
-0.278498 -0.789447 0.369272 0.979824 -0.00332667 0.199836
-0.355689 -0.789447 0.369272 -0.980372 -0.00726744 0.197025
0.348424 -0.806297 0.368785 0.980513 -0.0342167 0.19345
0.271233 -0.806391 0.369272 -0.978753 -0.0344275 0.202131
-0.278498 -0.806297 0.368785 0.980515 -0.0341972 0.193446
-0.355689 -0.806203 0.369616 -0.978031 -0.0388266 0.204812
0.348262 -0.822502 0.367084 0.977725 -0.125757 0.168048
0.27197 -0.823241 0.369836 -0.966011 -0.120174 0.228871
-0.278659 -0.822502 0.367084 0.977727 -0.125744 0.168042
-0.355024 -0.82234 0.370612 -0.964403 -0.142729 0.222609
0.347213 -0.835523 0.363204 0.960354 -0.261028 0.0979018
0.274544 -0.839074 0.371773 -0.909276 -0.307086 0.280919
-0.279708 -0.835523 0.363204 0.960069 -0.262064 0.0979265
-0.352234 -0.837891 0.371776 -0.915692 -0.321428 0.241229
0.34018 -0.850975 0.36346 0.827872 -0.544282 0.135592
0.280087 -0.85097 0.374892 -0.749171 -0.546338 0.374509
-0.286741 -0.850975 0.36346 0.826628 -0.546633 0.13371
-0.346404 -0.850273 0.374202 -0.77186 -0.514985 0.372858
0.328358 -0.863829 0.366611 0.481259 -0.855452 0.19129
0.315486 -0.868388 0.36757 0.193029 -0.96104 0.197841
0.300748 -0.867099 0.369096 -0.220837 -0.94356 0.24683
0.287574 -0.861354 0.372633 -0.584585 -0.74374 0.32421
-0.298653 -0.863784 0.366611 0.47717 -0.859226 0.184498
-0.31138 -0.868416 0.367805 0.192007 -0.95957 0.205813
-0.325642 -0.867231 0.369243 -0.241439 -0.944375 0.223303
-0.338748 -0.861075 0.372101 -0.592493 -0.754436 0.28245
0.433814 0.150206 0.355913 0.598064 0.800332 0.0422977
0.419357 0.156494 0.353492 0.32039 0.946734 0.0323262
0.403019 0.158858 0.352955 0.128982 0.991426 0.0209339
0.386075 0.159407 0.352955 0.035647 0.999354 0.00453038
0.369131 0.159407 0.352955 0.00424178 0.999991 -8.79692e-009
0.352188 0.159407 0.352955 -3.68684e-017 1 -7.85535e-018
0.335243 0.159407 0.352955 -3.68684e-017 1 7.87744e-018
0.318299 0.159407 0.352955 -3.73039e-017 1 2.77735e-017
0.301356 0.159407 0.352955 -0 1 -0
0.284412 0.159407 0.352955 0 1 0
0.267469 0.159407 0.352955 1.54016e-016 1 1.16763e-016
0.250525 0.159407 0.352955 -0 1 -0
0.23358 0.159407 0.352955 3.73013e-017 1 -2.97386e-017
0.216637 0.159407 0.352955 3.09662e-016 1 3.44029e-017
0.199693 0.159407 0.352955 0 1 0
0.182749 0.159407 0.352955 1.05398e-031 1 -1.56463e-016
0.165806 0.159407 0.352955 2.84707e-016 1 1.66523e-018
0.148862 0.159407 0.352955 -2.1647e-019 1 -1.08975e-017
0.131918 0.159407 0.352955 0 1 0
0.114974 0.159407 0.352955 -3.70875e-017 1 1.97983e-017
0.0980303 0.159407 0.352955 0 1 0
0.0810867 0.159407 0.352955 -1.9481e-016 1 -1.54249e-016
0.0641431 0.159407 0.352955 -0 1 -0
0.0471995 0.159407 0.352955 -0 1 -0
0.0302548 0.159407 0.352955 1.8423e-020 1 -2.73922e-016
0.0133112 0.159407 0.352955 -2.29645e-017 1 8.41792e-017
-0.00363246 0.159407 0.352955 -1.35738e-016 1 -7.27379e-017
-0.0205761 0.159407 0.352955 1.56971e-016 1 -7.27377e-017
-0.0375197 0.159407 0.352955 -0 1 -0
-0.0544633 0.159407 0.352955 -3.71931e-017 1 -2.42706e-017
-0.071408 0.159407 0.352955 -1.08235e-019 1 5.45702e-018
-0.0883516 0.159407 0.352955 3.71957e-017 1 -2.37776e-017
-0.105295 0.159407 0.352955 1.05398e-031 1 -7.31963e-017
-0.122239 0.159407 0.352955 -0 1 -0
-0.139182 0.159407 0.352955 -0 1 -0
-0.156127 0.159407 0.352955 -3.70848e-017 1 1.88136e-017
-0.173071 0.159407 0.352955 -1.56204e-016 1 3.43945e-017
-0.190014 0.159407 0.352955 2.75342e-016 1 -1.54249e-016
-0.206958 0.159407 0.352955 -1.05398e-031 1 -1.56463e-016
-0.223902 0.159407 0.352955 3.6871e-017 1 1.18562e-017
-0.240845 0.159407 0.352955 -0 1 -0
-0.25779 0.159407 0.352955 3.68684e-017 1 -7.92162e-018
-0.274734 0.159407 0.352955 1.11036e-017 1 3.44179e-017
-0.291677 0.159407 0.352955 -3.49637e-017 1 -1.16043e-017
-0.308621 0.159407 0.352955 -3.49695e-017 1 -1.54754e-016
-0.325564 0.159407 0.352955 2.37979e-016 1 3.43466e-017
-0.342508 0.159407 0.352955 -3.73013e-017 1 -2.97387e-017
-0.359453 0.159407 0.352955 -4.3294e-019 1 2.18612e-017
-0.376396 0.159407 0.352955 3.09664e-016 1 3.44029e-017
-0.39334 0.159407 0.352955 -0.00485334 0.999988 5.88135e-006
-0.410284 0.159407 0.352955 -0.0404895 0.99918 -0.000488952
-0.427227 0.15878 0.352955 -0.138186 0.990406 -0.000657544
-0.443544 0.156269 0.352327 -0.331192 0.943561 -0.00202104
0.444461 0.139392 0.362278 0.838193 0.543309 0.0474043
-0.457979 0.149993 0.349817 -0.59893 0.800802 0.00012333
-0.468647 0.139324 0.343541 -0.833902 0.551908 0.00217157
0.450131 0.125025 0.355286 0.980776 0.188961 0.0487002
-0.474295 0.124891 0.350444 -0.980504 0.196345 0.00773861
0.450109 0.109269 0.350355 0.978183 -0.202898 0.0446118
-0.474295 0.109201 0.355465 -0.980562 -0.195838 0.0120436
0.444651 0.094723 0.343408 0.83061 -0.554911 0.0464947
-0.468647 0.0947675 0.362368 -0.835952 -0.548677 0.0117041
0.433837 0.0840767 0.349749 0.60163 -0.798509 0.0206067
0.419335 0.0778228 0.352327 0.356047 -0.934466 0.00217055
0.403019 0.0747632 0.352955 0.248285 -0.968548 -0.0164224
0.386613 0.0717713 0.35356 0.335477 -0.941307 -0.0373686
0.372023 0.0655079 0.356114 0.550837 -0.833755 -0.0378298
0.247633 0.0656011 0.350024 -0.533875 -0.845491 0.0110429
0.233042 0.0717713 0.352417 -0.2977 -0.954183 0.030176
0.216637 0.074136 0.352955 -0.121639 -0.992419 0.0175702
0.199693 0.0746848 0.352955 -0.0321571 -0.999469 0.00534928
0.182749 0.0746848 0.352955 -0.00424177 -0.999991 8.79594e-009
0.165806 0.0746848 0.352955 -3.16035e-017 -1 1.00332e-016
0.148862 0.0746848 0.352955 0 -1 0
0.131918 0.0746848 0.352955 -0 -1 -0
0.114974 0.0746848 0.352955 1.85437e-017 -1 -9.89913e-018
0.0980303 0.0746848 0.352955 -0 -1 -0
0.0810867 0.0746848 0.352955 0 -1 0
0.0641431 0.0746848 0.352955 0 -1 0
0.0471995 0.0746848 0.352955 -9.2115e-021 -1 -1.36961e-016
0.0302548 0.0746848 0.352955 -0 -1 -0
0.0133112 0.0746848 0.352955 -0 -1 -0
-0.00363246 0.0746848 0.352955 1.12117e-016 -1 6.3235e-024
-0.0205761 0.0746848 0.352955 0 -1 0
-0.0375197 0.0746848 0.352955 0 -1 0
-0.0544633 0.0746848 0.352955 0 -1 0
-0.071408 0.0746848 0.352955 1.85965e-017 -1 -1.21353e-017
-0.0883516 0.0746848 0.352955 -1.85979e-017 -1 1.18888e-017
-0.105295 0.0746848 0.352955 0 -1 -2.77556e-017
-0.122239 0.0746848 0.352955 -1.8652e-017 -1 -1.38757e-017
-0.139182 0.0746848 0.352955 -1.86507e-017 -1 -1.48583e-017
-0.156127 0.0746848 0.352955 1.85424e-017 -1 -9.40678e-018
-0.173071 0.0746848 0.352955 1.85437e-017 -1 -9.89361e-018
-0.190014 0.0746848 0.352955 0.00424177 -0.999991 8.79596e-009
-0.206958 0.0746848 0.352955 0.0320203 -0.999473 -0.00540981
-0.223902 0.074136 0.352955 0.121381 -0.992433 -0.01854
-0.240307 0.0717713 0.35356 0.302031 -0.952557 -0.0375921
-0.254898 0.0655079 0.356114 0.544231 -0.838102 -0.0373797
-0.378317 0.0657283 0.349365 -0.500092 -0.864721 -0.0465286
-0.393744 0.0718158 0.352282 -0.283622 -0.958895 0.00886049
-0.410284 0.074136 0.352955 -0.152806 -0.988151 0.0144395
-0.427227 0.075312 0.352955 -0.161759 -0.986807 0.00681751
-0.443544 0.0778228 0.353582 -0.334465 -0.942396 0.00475616
-0.457979 0.084099 0.356092 -0.600018 -0.799973 0.00454376
0.360672 0.0547164 0.36248 0.771092 -0.633612 0.0628713
0.259148 0.0556848 0.344646 -0.724723 -0.678658 -0.119166
-0.26625 0.0547164 0.36248 0.771086 -0.633627 0.0628011
-0.364757 0.0550046 0.343492 -0.704951 -0.671458 -0.228448
0.354128 0.0403059 0.356204 0.915413 -0.400049 -0.0445038
0.26632 0.0415963 0.350808 -0.89129 -0.430418 -0.142631
-0.272794 0.0403059 0.356204 0.915416 -0.400042 -0.0445041
-0.358893 0.0403282 0.350557 -0.891143 -0.394108 -0.224819
0.350754 0.0239895 0.354008 0.970629 -0.199735 -0.134108
0.270156 0.0246347 0.352771 -0.967447 -0.19791 -0.157729
-0.276166 0.0239895 0.354008 0.970629 -0.199737 -0.134104
-0.356382 0.0239228 0.353044 -0.966532 -0.157291 -0.202673
0.349264 0.00704589 0.353537 0.980769 -0.0860572 -0.175177
0.271187 0.00704589 0.353448 -0.981925 -0.0642235 -0.178039
-0.277657 0.00704589 0.353537 0.980769 -0.0860638 -0.175169
-0.355689 0.00691135 0.353582 -0.979075 -0.0432242 -0.198855
0.348647 -0.00996553 0.35356 0.980889 -0.0216617 -0.19336
0.271233 -0.0100323 0.353582 -0.981512 -0.0110789 -0.191079
-0.278273 -0.00996553 0.35356 0.98089 -0.0216753 -0.19335
-0.355689 -0.0100323 0.353582 -0.980227 -0.00339445 -0.197846
0.348424 -0.0269759 0.353582 0.980347 -0.0054353 -0.197205
0.271233 -0.0269759 0.353582 -0.980514 0.0003329 -0.196451
-0.278498 -0.0269759 0.353582 0.980348 -0.00544667 -0.197199
-0.355689 -0.0269759 0.353582 -0.979986 -8.88579e-008 -0.199069
0.348424 -0.0439206 0.353582 0.980254 0.000955422 -0.197738
0.271233 -0.0439206 0.353582 -0.980254 0.00266657 -0.197725
-0.278498 -0.0439206 0.353582 0.980256 0.000946601 -0.197731
-0.355689 -0.0439206 0.353582 -0.979986 8.88842e-008 -0.199069
0.348424 -0.0608642 0.353582 0.979984 5.96624e-008 -0.199074
0.271233 -0.0608642 0.353582 -0.979986 5.9612e-008 -0.199066
-0.278498 -0.0608642 0.353582 0.979986 5.96172e-008 -0.199066
-0.355689 -0.0608642 0.353582 -0.979986 5.94749e-008 -0.199069
0.348424 -0.0778078 0.353582 0.979984 3.14328e-010 -0.199074
0.271233 -0.0778078 0.353582 -0.979986 3.14028e-010 -0.199066
-0.278498 -0.0778078 0.353582 0.979986 3.14061e-010 -0.199066
-0.355689 -0.0778078 0.353582 -0.979986 3.13172e-010 -0.199069
0.348424 -0.0947514 0.353582 0.979984 2.10816e-010 -0.199074
0.271233 -0.0947514 0.353582 -0.979986 2.10638e-010 -0.199066
-0.278498 -0.0947514 0.353582 0.979986 2.10657e-010 -0.199066
-0.355689 -0.0947514 0.353582 -0.979986 2.10154e-010 -0.199069
0.348424 -0.111695 0.353582 0.979984 -5.98713e-008 -0.199074
0.271233 -0.111695 0.353582 -0.979986 -5.98207e-008 -0.199066
-0.278498 -0.111695 0.353582 0.979986 -5.98259e-008 -0.199066
-0.355689 -0.111695 0.353582 -0.979986 -5.9683e-008 -0.199069
0.348424 -0.128639 0.353582 0.979985 -9.01094e-008 -0.199074
0.271233 -0.128639 0.353582 -0.979986 -9.00235e-008 -0.199066
-0.278498 -0.128639 0.353582 0.979986 -9.00327e-008 -0.199066
-0.355689 -0.128639 0.353582 -0.979986 -8.97783e-008 -0.199069
0.348424 -0.145583 0.353582 0.979985 8.80089e-008 -0.199074
0.271233 -0.145583 0.353582 -0.979986 8.79249e-008 -0.199066
-0.278498 -0.145583 0.353582 0.979986 8.79339e-008 -0.199066
-0.355689 -0.145583 0.353582 -0.979986 8.76851e-008 -0.199069
0.348424 -0.162527 0.353582 0.979984 6.11285e-008 -0.199074
0.271233 -0.162527 0.353582 -0.979986 6.10767e-008 -0.199066
-0.278498 -0.162527 0.353582 0.979986 6.10821e-008 -0.199066
-0.355689 -0.162527 0.353582 -0.979986 6.09356e-008 -0.199069
0.348424 -0.179471 0.353582 0.979984 1.68653e-009 -0.199074
0.271233 -0.179471 0.353582 -0.979986 1.68511e-009 -0.199066
-0.278498 -0.179471 0.353582 0.979986 1.68525e-009 -0.199066
-0.355689 -0.179471 0.353582 -0.979986 1.68123e-009 -0.199069
0.348424 -0.196414 0.353582 0.979984 1.25731e-009 -0.199074
0.271233 -0.196414 0.353582 -0.979986 1.25611e-009 -0.199066
-0.278498 -0.196414 0.353582 0.979986 1.25624e-009 -0.199066
-0.355689 -0.196414 0.353582 -0.979986 1.25269e-009 -0.199069
0.348424 -0.213358 0.353582 0.979984 -6.19719e-008 -0.199074
0.271233 -0.213358 0.353582 -0.979986 -6.19193e-008 -0.199066
-0.278498 -0.213358 0.353582 0.979986 -6.19248e-008 -0.199066
-0.355689 -0.213358 0.353582 -0.979986 -6.17763e-008 -0.199069
0.348424 -0.230301 0.353582 0.979985 -9.13667e-008 -0.199074
0.271233 -0.230301 0.353582 -0.979986 -9.12796e-008 -0.199066
-0.278498 -0.230301 0.353582 0.979986 -9.12889e-008 -0.199066
-0.355689 -0.230301 0.353582 -0.979986 -9.1031e-008 -0.199069
0.348424 -0.247246 0.353582 0.979985 8.96802e-008 -0.199074
0.271233 -0.247246 0.353582 -0.979986 8.95945e-008 -0.199066
-0.278498 -0.247246 0.353582 0.979986 8.96037e-008 -0.199066
-0.355689 -0.247246 0.353582 -0.979986 8.93497e-008 -0.199069
0.348424 -0.26419 0.353582 0.979984 6.03005e-008 -0.199074
0.271233 -0.26419 0.353582 -0.979986 6.02496e-008 -0.199066
-0.278498 -0.26419 0.353582 0.979986 6.02549e-008 -0.199066
-0.355689 -0.26419 0.353582 -0.979986 6.01116e-008 -0.199069
0.348424 -0.281133 0.353582 0.979984 1.67136e-009 -0.199074
0.271233 -0.281133 0.353582 -0.979986 1.66967e-009 -0.199066
-0.278498 -0.281133 0.353582 0.979986 1.66986e-009 -0.199066
-0.355689 -0.281133 0.353582 -0.979986 1.66476e-009 -0.199069
0.348424 -0.298077 0.353582 0.979984 -8.28096e-010 -0.199074
0.271233 -0.298077 0.353582 -0.979986 -8.2712e-010 -0.199066
-0.278498 -0.298077 0.353582 0.979986 -8.27231e-010 -0.199066
-0.355689 -0.298077 0.353582 -0.979986 -8.24146e-010 -0.199069
0.348424 -0.315021 0.353582 0.979984 -5.98865e-008 -0.199074
0.271233 -0.315021 0.353582 -0.979986 -5.98361e-008 -0.199066
-0.278498 -0.315021 0.353582 0.979986 -5.98414e-008 -0.199066
-0.355689 -0.315021 0.353582 -0.979986 -5.96995e-008 -0.199069
0.348424 -0.331964 0.353582 0.979985 -9.13516e-008 -0.199074
0.271233 -0.331964 0.353582 -0.979986 -9.12641e-008 -0.199066
-0.278498 -0.331964 0.353582 0.979986 -9.12736e-008 -0.199066
-0.355689 -0.331964 0.353582 -0.979986 -9.10145e-008 -0.199069
0.348424 -0.348909 0.353582 0.979985 9.13516e-008 -0.199074
0.271233 -0.348909 0.353582 -0.979986 9.12641e-008 -0.199066
-0.278498 -0.348909 0.353582 0.979986 9.12736e-008 -0.199066
-0.355689 -0.348909 0.353582 -0.979986 9.10145e-008 -0.199069
0.348424 -0.365853 0.353582 0.979984 5.98865e-008 -0.199074
0.271233 -0.365853 0.353582 -0.979986 5.98361e-008 -0.199066
-0.278498 -0.365853 0.353582 0.979986 5.98414e-008 -0.199066
-0.355689 -0.365853 0.353582 -0.979986 5.96995e-008 -0.199069
0.348424 -0.382796 0.353582 0.979984 8.28097e-010 -0.199074
0.271233 -0.382796 0.353582 -0.979986 8.27121e-010 -0.199066
-0.278498 -0.382796 0.353582 0.979986 8.27231e-010 -0.199066
-0.355689 -0.382796 0.353582 -0.979986 8.24146e-010 -0.199069
0.348424 -0.39974 0.353582 0.979984 -5.98561e-008 -0.199074
0.271233 -0.39974 0.353582 -0.979986 -5.98052e-008 -0.199066
-0.278498 -0.39974 0.353582 0.979986 -5.98105e-008 -0.199066
-0.355689 -0.39974 0.353582 -0.979986 -5.96665e-008 -0.199069
0.348424 -0.416683 0.353582 0.979985 -8.71809e-008 -0.199074
0.271233 -0.416683 0.353582 -0.979986 -8.70978e-008 -0.199066
-0.278498 -0.416683 0.353582 0.979986 -8.71068e-008 -0.199066
-0.355689 -0.416683 0.353582 -0.979986 -8.6861e-008 -0.199069
0.348424 -0.433628 0.353582 0.979985 8.71809e-008 -0.199074
0.271233 -0.433628 0.353582 -0.979986 8.70978e-008 -0.199066
-0.278498 -0.433628 0.353582 0.979986 8.71068e-008 -0.199066
-0.355689 -0.433628 0.353582 -0.979986 8.6861e-008 -0.199069
0.348424 -0.450572 0.353582 0.979984 5.81696e-008 -0.199074
0.271233 -0.450572 0.353582 -0.979986 5.81201e-008 -0.199066
-0.278498 -0.450572 0.353582 0.979986 5.81252e-008 -0.199066
-0.355689 -0.450572 0.353582 -0.979986 5.79853e-008 -0.199069
0.348424 -0.467515 0.353582 0.979984 -3.34272e-009 -0.199074
0.271233 -0.467515 0.353582 -0.979986 -3.33934e-009 -0.199066
-0.278498 -0.467515 0.353582 0.979986 -3.33971e-009 -0.199066
-0.355689 -0.467515 0.353582 -0.979986 -3.32952e-009 -0.199069
0.348424 -0.484459 0.353582 0.979984 3.34272e-009 -0.199074
0.271233 -0.484459 0.353582 -0.979986 3.33934e-009 -0.199066
-0.278498 -0.484459 0.353582 0.979986 3.33971e-009 -0.199066
-0.355689 -0.484459 0.353582 -0.979986 3.32952e-009 -0.199069
0.348424 -0.501403 0.353582 0.979984 -6.15426e-008 -0.199074
0.271233 -0.501403 0.353582 -0.979986 -6.14902e-008 -0.199066
-0.278498 -0.501403 0.353582 0.979986 -6.14957e-008 -0.199066
-0.355689 -0.501403 0.353582 -0.979986 -6.13477e-008 -0.199069
0.348424 -0.518346 0.353582 0.979985 -8.88371e-008 -0.199074
0.271233 -0.518346 0.353582 -0.979986 -8.87521e-008 -0.199066
-0.278498 -0.518346 0.353582 0.979986 -8.87612e-008 -0.199066
-0.355689 -0.518346 0.353582 -0.979986 -8.85093e-008 -0.199069
0.348424 -0.535291 0.353582 0.979985 9.55526e-008 -0.199074
0.271233 -0.535291 0.353582 -0.979986 9.54613e-008 -0.199066
-0.278498 -0.535291 0.353582 0.979986 9.54711e-008 -0.199066
-0.355689 -0.535291 0.353582 -0.979986 9.52009e-008 -0.199069
0.348424 -0.552234 0.353582 0.979984 5.56855e-008 -0.199074
0.271233 -0.552234 0.353582 -0.979986 5.5639e-008 -0.199066
-0.278498 -0.552234 0.353582 0.979986 5.56438e-008 -0.199066
-0.355689 -0.552234 0.353582 -0.979986 5.55131e-008 -0.199069
0.348424 -0.569178 0.353582 0.979984 -3.37306e-009 -0.199074
0.271233 -0.569178 0.353582 -0.979986 -3.37021e-009 -0.199066
-0.278498 -0.569178 0.353582 0.979986 -3.3705e-009 -0.199066
-0.355689 -0.569178 0.353582 -0.979986 -3.36245e-009 -0.199069
0.348424 -0.586122 0.353582 0.979984 -4.19269e-016 -0.199074
0.271233 -0.586122 0.353582 -0.979986 7.62631e-019 -0.199066
-0.278498 -0.586122 0.353582 0.979986 1.25983e-016 -0.199066
-0.355689 -0.586122 0.353582 -0.979986 -1.1283e-016 -0.199069
0.348424 -0.603065 0.353582 0.979984 -5.39684e-008 -0.199074
0.271233 -0.603065 0.353582 -0.979986 -5.39228e-008 -0.199066
-0.278498 -0.603065 0.353582 0.979986 -5.39276e-008 -0.199066
-0.355689 -0.603065 0.353582 -0.979986 -5.37988e-008 -0.199069
0.348424 -0.620009 0.353582 0.979985 -8.04655e-008 -0.199074
0.271233 -0.620009 0.353582 -0.979986 -8.03886e-008 -0.199066
-0.278498 -0.620009 0.353582 0.979986 -8.03969e-008 -0.199066
-0.355689 -0.620009 0.353582 -0.979986 -8.01694e-008 -0.199069
0.348424 -0.636954 0.353582 0.979985 8.04655e-008 -0.199074
0.271233 -0.636954 0.353582 -0.979986 8.03886e-008 -0.199066
-0.278498 -0.636954 0.353582 0.979986 8.03969e-008 -0.199066
-0.355689 -0.636954 0.353582 -0.979986 8.01694e-008 -0.199069
0.348424 -0.653897 0.353582 0.979984 5.05954e-008 -0.199074
0.271233 -0.653897 0.353582 -0.979986 5.05526e-008 -0.199066
-0.278498 -0.653897 0.353582 0.979986 5.05571e-008 -0.199066
-0.355689 -0.653897 0.353582 -0.979986 5.04363e-008 -0.199069
0.348424 -0.670841 0.353582 0.979984 -1.6562e-009 -0.199074
0.271233 -0.670841 0.353582 -0.979986 -1.65425e-009 -0.199066
-0.278498 -0.670841 0.353582 0.979986 -1.65447e-009 -0.199066
-0.355689 -0.670841 0.353582 -0.979986 -1.6483e-009 -0.199069
0.348424 -0.687785 0.353582 0.979984 1.00585e-008 -0.199074
0.271233 -0.687785 0.353582 -0.979986 1.00489e-008 -0.199066
-0.278498 -0.687785 0.353582 0.979986 1.00499e-008 -0.199066
-0.355689 -0.687785 0.353582 -0.979986 1.00215e-008 -0.199069
0.348424 -0.704728 0.353582 0.979984 -5.89977e-008 -0.199074
0.271233 -0.704728 0.353582 -0.979986 -5.89472e-008 -0.199066
-0.278498 -0.704728 0.353582 0.979986 -5.89525e-008 -0.199066
-0.355689 -0.704728 0.353582 -0.979986 -5.88095e-008 -0.199069
0.348424 -0.721672 0.353582 0.979985 -8.88674e-008 -0.199074
0.271233 -0.721672 0.353582 -0.979986 -8.87829e-008 -0.199066
-0.278498 -0.721672 0.353582 0.979986 -8.8792e-008 -0.199066
-0.355689 -0.721672 0.353582 -0.979986 -8.85422e-008 -0.199069
0.348424 -0.738616 0.353582 0.979985 8.88674e-008 -0.199074
0.271233 -0.738616 0.353582 -0.979986 8.87829e-008 -0.199066
-0.278498 -0.738616 0.353582 0.979986 8.8792e-008 -0.199066
-0.355689 -0.738616 0.353582 -0.979986 8.85422e-008 -0.199069
0.348424 -0.75556 0.353582 0.979984 6.23707e-008 -0.199074
0.271233 -0.75556 0.353582 -0.979986 6.23174e-008 -0.199066
-0.278498 -0.75556 0.353582 0.979986 6.2323e-008 -0.199066
-0.355689 -0.75556 0.353582 -0.979986 6.21719e-008 -0.199069
0.348424 -0.772504 0.353582 0.980299 0.00270733 -0.197501
0.271233 -0.772504 0.353582 -0.979986 -5.02445e-009 -0.199066
-0.278498 -0.772504 0.353582 0.980301 0.00270657 -0.197493
-0.355689 -0.772504 0.353582 -0.979986 -0.00115983 -0.199064
0.348424 -0.789447 0.353582 0.980596 -0.00546124 -0.195965
0.271233 -0.789447 0.353582 -0.980097 -0.00237552 -0.198503
-0.278498 -0.789447 0.353582 0.980597 -0.0054499 -0.195958
-0.355689 -0.789447 0.353582 -0.979882 -0.0042751 -0.199531
0.348424 -0.806203 0.353237 0.979805 -0.0281738 -0.197962
0.271233 -0.806391 0.353582 -0.98067 -0.0265911 -0.193853
-0.278498 -0.806203 0.353237 0.979806 -0.0281517 -0.197959
-0.355689 -0.806297 0.354069 -0.981127 -0.0394394 -0.1893
0.347948 -0.822434 0.352179 0.974226 -0.0988875 -0.202743
0.271452 -0.823241 0.354178 -0.981364 -0.104689 -0.161137
-0.278972 -0.822434 0.352179 0.974229 -0.0988726 -0.202737
-0.355526 -0.822502 0.355769 -0.978797 -0.141312 -0.148285
0.345617 -0.83815 0.350641 0.932639 -0.295812 -0.20659
0.273226 -0.839152 0.356442 -0.950098 -0.29401 -0.104267
-0.281303 -0.83815 0.350641 0.931198 -0.30005 -0.206978
-0.354313 -0.835267 0.359578 -0.957803 -0.283823 -0.0453623
0.340489 -0.85158 0.346545 0.768794 -0.543664 -0.336727
0.278636 -0.852901 0.36218 -0.815326 -0.577316 0.0441546
-0.286431 -0.85158 0.346545 0.762177 -0.550102 -0.341284
-0.347023 -0.850602 0.359335 -0.835911 -0.543118 -0.0792263
0.332454 -0.861659 0.351922 0.585626 -0.789613 -0.18318
0.318958 -0.867451 0.353087 0.228905 -0.95848 -0.170055
0.303558 -0.867814 0.353999 -0.164059 -0.967768 -0.191077
0.289034 -0.862857 0.356596 -0.540279 -0.833859 -0.113039
-0.294647 -0.861569 0.351922 0.583266 -0.789799 -0.189785
-0.308401 -0.867344 0.353506 0.195806 -0.963376 -0.183211
-0.322883 -0.86843 0.354987 -0.193954 -0.962272 -0.190827
-0.335291 -0.863531 0.356445 -0.483021 -0.862779 -0.14934
0.433992 0.150942 0.338212 0.580295 0.811192 0.0722857
0.419349 0.157157 0.336396 0.299955 0.952631 0.0502194
0.403019 0.159094 0.336011 0.112143 0.993461 0.021417
0.386075 0.159407 0.336011 0.0279312 0.999587 0.00678398
0.369131 0.159407 0.336011 0.0018396 0.999998 0.000192516
0.352188 0.159407 0.336011 3.73013e-017 1 -2.97497e-017
0.335243 0.159407 0.336011 -3.68684e-017 1 -7.87744e-018
0.318299 0.159407 0.336011 3.6871e-017 1 1.1812e-017
0.301356 0.159407 0.336011 0 1 0
0.284412 0.159407 0.336011 -0 1 -0
0.267469 0.159407 0.336011 0 1 0
0.250525 0.159407 0.336011 0 1 0
0.23358 0.159407 0.336011 3.73013e-017 1 2.97386e-017
0.216637 0.159407 0.336011 4.72635e-016 1 3.43645e-017
0.199693 0.159407 0.336011 0 1 1.11022e-016
0.182749 0.159407 0.336011 0 1 0
0.165806 0.159407 0.336011 -4.06882e-017 1 2.55688e-016
0.148862 0.159407 0.336011 -2.1647e-019 1 1.08975e-017
0.131918 0.159407 0.336011 -0 1 -0
0.114974 0.159407 0.336011 -3.70875e-017 1 -1.97983e-017
0.0980303 0.159407 0.336011 0 1 1.38778e-016
0.0810867 0.159407 0.336011 -1.9481e-016 1 6.11336e-017
0.0641431 0.159407 0.336011 0 1 0
0.0471995 0.159407 0.336011 0 1 0
0.0302548 0.159407 0.336011 -8.77602e-018 1 -9.53672e-018
0.0133112 0.159407 0.336011 -5.37328e-018 1 -3.36353e-016
-0.00363246 0.159407 0.336011 -1.35738e-016 1 -2.03779e-017
-0.0205761 0.159407 0.336011 1.56971e-016 1 -2.0378e-017
-0.0375197 0.159407 0.336011 0 1 0
-0.0544633 0.159407 0.336011 -3.71931e-017 1 2.42706e-017
-0.071408 0.159407 0.336011 -1.08235e-019 1 -5.45702e-018
-0.0883516 0.159407 0.336011 3.71957e-017 1 2.37776e-017
-0.105295 0.159407 0.336011 -0 1 -0
-0.122239 0.159407 0.336011 0 1 0
-0.139182 0.159407 0.336011 0 1 0
-0.156127 0.159407 0.336011 -3.70848e-017 1 -1.88136e-017
-0.173071 0.159407 0.336011 3.70874e-017 1 1.97872e-017
-0.190014 0.159407 0.336011 2.75341e-016 1 6.11333e-017
-0.206958 0.159407 0.336011 -0 1 -0
-0.223902 0.159407 0.336011 3.6871e-017 1 -1.18562e-017
-0.240845 0.159407 0.336011 0 1 0
-0.25779 0.159407 0.336011 3.68684e-017 1 7.92162e-018
-0.274734 0.159407 0.336011 -0 1 -0
-0.291677 0.159407 0.336011 7.93159e-017 1 2.03777e-017
-0.308621 0.159407 0.336011 -3.49637e-017 1 9.99231e-017
-0.325564 0.159407 0.336011 -3.73039e-017 1 2.77735e-017
-0.342508 0.159407 0.336011 -3.73013e-017 1 2.97387e-017
-0.359453 0.159407 0.336011 -3.77342e-017 1 -5.15999e-017
-0.376396 0.159407 0.336011 3.6871e-017 1 1.1812e-017
-0.39334 0.159407 0.336011 -0.00484762 0.999988 1.00512e-008
-0.410284 0.159407 0.336011 -0.0409347 0.999162 -6.29407e-005
-0.427227 0.15878 0.336011 -0.138021 0.990405 -0.00692898
-0.443544 0.156269 0.335383 -0.330415 0.943826 -0.00427079
0.444693 0.139834 0.344551 0.832979 0.549078 0.0682562
-0.457979 0.149993 0.332874 -0.59837 0.801214 -0.00302225
-0.468647 0.139324 0.326597 -0.833801 0.552065 0.000162128
0.450565 0.12516 0.337518 0.980158 0.181511 0.0796562
-0.474295 0.124891 0.333501 -0.980408 0.196979 0.000366781
0.450579 0.109058 0.333219 0.973851 -0.209877 0.0869853
-0.474295 0.109201 0.338521 -0.980398 -0.197019 0.00154705
0.445355 0.0944497 0.326119 0.819413 -0.563595 0.104512
-0.468647 0.0947675 0.345424 -0.833979 -0.551793 0.00176494
0.434215 0.0838744 0.332299 0.579803 -0.812964 0.0540168
0.41947 0.0777783 0.335249 0.337375 -0.941285 0.0126944
0.403019 0.0749984 0.336011 0.218342 -0.975652 -0.0207226
0.3863 0.0724885 0.336504 0.296469 -0.951968 -0.076568
0.371024 0.0663788 0.338758 0.502659 -0.849908 -0.158085
0.248452 0.0658766 0.332889 -0.476596 -0.872858 -0.104767
0.233088 0.0715923 0.335249 -0.276329 -0.960838 -0.0207816
0.216637 0.0740576 0.336011 -0.122263 -0.992492 0.00335646
0.199693 0.0746848 0.336011 -0.036814 -0.999318 0.00300931
0.182749 0.0746848 0.336011 -0.00484774 -0.999988 -1.00514e-008
0.165806 0.0746848 0.336011 1.85437e-017 -1 -9.9019e-018
0.148862 0.0746848 0.336011 1.86507e-017 -1 -1.48583e-017
0.131918 0.0746848 0.336011 0 -1 0
0.114974 0.0746848 0.336011 1.85437e-017 -1 9.89913e-018
0.0980303 0.0746848 0.336011 -0 -1 -0
0.0810867 0.0746848 0.336011 -0 -1 -0
0.0641431 0.0746848 0.336011 -0 -1 -0
0.0471995 0.0746848 0.336011 4.38801e-018 -1 -4.76836e-018
0.0302548 0.0746848 0.336011 0 -1 0
0.0133112 0.0746848 0.336011 0 -1 0
-0.00363246 0.0746848 0.336011 1.12117e-016 -1 -3.66212e-017
-0.0205761 0.0746848 0.336011 -0 -1 -0
-0.0375197 0.0746848 0.336011 -0 -1 -0
-0.0544633 0.0746848 0.336011 -0 -1 -0
-0.071408 0.0746848 0.336011 1.85965e-017 -1 1.21353e-017
-0.0883516 0.0746848 0.336011 -2.33124e-017 -1 1.20376e-016
-0.105295 0.0746848 0.336011 -1.05398e-031 -1 5.78223e-017
-0.122239 0.0746848 0.336011 -1.8652e-017 -1 1.38757e-017
-0.139182 0.0746848 0.336011 -1.86507e-017 -1 1.48583e-017
-0.156127 0.0746848 0.336011 1.85424e-017 -1 9.40678e-018
-0.173071 0.0746848 0.336011 1.85437e-017 -1 9.89361e-018
-0.190014 0.0746848 0.336011 0.00228945 -0.999997 -0.000608554
-0.206958 0.0746848 0.336011 0.0263646 -0.999624 -0.00755706
-0.223902 0.0743712 0.336011 0.094981 -0.995115 -0.0269279
-0.240622 0.0724885 0.336504 0.262285 -0.961895 -0.0772323
-0.255897 0.0663788 0.338758 0.495956 -0.853904 -0.157719
-0.375301 0.0669244 0.329634 -0.431487 -0.882638 -0.186467
-0.393415 0.0719472 0.334658 -0.230334 -0.97164 -0.0535026
-0.410217 0.0740798 0.335944 -0.135458 -0.990753 -0.00769666
-0.427227 0.075312 0.336011 -0.163419 -0.986551 0.00342765
-0.443544 0.0778228 0.336639 -0.33498 -0.942215 0.00445937
-0.457979 0.084099 0.339149 -0.59837 -0.801214 0.00302253
0.360266 0.0552176 0.34528 0.720072 -0.657727 -0.221113
0.262243 0.0562993 0.329299 -0.603874 -0.732048 -0.315344
-0.266654 0.0552176 0.34528 0.720072 -0.657729 -0.22111
-0.356142 0.0556159 0.327694 -0.575529 -0.660419 -0.4823
0.351913 0.0409342 0.339901 0.825335 -0.432411 -0.363102
0.267414 0.044817 0.338227 -0.791458 -0.522197 -0.317656
-0.275007 0.0409342 0.339901 0.8243 -0.433228 -0.364476
-0.352191 0.0403727 0.335674 -0.736685 -0.405724 -0.541002
0.346477 0.0247025 0.338879 0.835951 -0.231771 -0.497461
0.27484 0.0273935 0.336573 -0.815073 -0.272062 -0.511506
-0.280443 0.0247025 0.338879 0.833259 -0.232987 -0.501395
-0.350589 0.023855 0.33852 -0.808753 -0.167205 -0.56388
0.343614 0.00753006 0.338924 0.831049 -0.102508 -0.546671
0.276656 0.00753006 0.338703 -0.831914 -0.0924479 -0.54715
-0.283308 0.00753006 0.338924 0.828455 -0.101489 -0.550783
-0.35004 0.00691135 0.339148 -0.826938 -0.0440763 -0.560563
0.342988 -0.00989772 0.339103 0.829091 -0.0315588 -0.558222
0.276858 -0.00996553 0.339081 -0.831866 -0.0274296 -0.554299
-0.283933 -0.00989772 0.339103 0.82779 -0.0302459 -0.560223
-0.35004 -0.0100323 0.339148 -0.828112 -0.0057877 -0.560533
0.342776 -0.0269759 0.339148 0.828295 -0.00641319 -0.560256
0.276881 -0.0269759 0.339148 -0.829467 -0.00319686 -0.558546
-0.284146 -0.0269759 0.339148 0.828023 -0.00609451 -0.56066
-0.35004 -0.0269759 0.339148 -0.827223 -1.0265e-007 -0.561874
0.342776 -0.0439206 0.339148 0.827141 -0.00119758 -0.561993
0.276881 -0.0439206 0.339148 -0.828484 0.00141746 -0.560011
-0.284146 -0.0439206 0.339148 0.827143 -0.00119973 -0.561991
-0.35004 -0.0439206 0.339148 -0.827223 1.02678e-007 -0.561874
0.342776 -0.0608642 0.339148 0.827232 6.36786e-008 -0.56186
0.276881 -0.0608642 0.339148 -0.827234 6.37453e-008 -0.561857
-0.284146 -0.0608642 0.339148 0.827235 6.3745e-008 -0.561857
-0.35004 -0.0608642 0.339148 -0.827223 6.3668e-008 -0.561874
0.342776 -0.0778078 0.339148 0.827232 3.61865e-010 -0.56186
0.276881 -0.0778078 0.339148 -0.827234 3.62258e-010 -0.561857
-0.284146 -0.0778078 0.339148 0.827235 3.62259e-010 -0.561857
-0.35004 -0.0778078 0.339148 -0.827223 3.61712e-010 -0.561874
0.342776 -0.0947514 0.339148 0.827232 2.251e-010 -0.56186
0.276881 -0.0947514 0.339148 -0.827234 2.25337e-010 -0.561857
-0.284146 -0.0947514 0.339148 0.827235 2.25336e-010 -0.561857
-0.35004 -0.0947514 0.339148 -0.827223 2.25063e-010 -0.561874
0.342776 -0.111695 0.339148 0.827232 -6.39279e-008 -0.56186
0.276881 -0.111695 0.339148 -0.827234 -6.39949e-008 -0.561857
-0.284146 -0.111695 0.339148 0.827235 -6.39946e-008 -0.561857
-0.35004 -0.111695 0.339148 -0.827223 -6.39172e-008 -0.561874
0.342776 -0.128639 0.339148 0.827232 -1.03666e-007 -0.56186
0.276881 -0.128639 0.339148 -0.827234 -1.03779e-007 -0.561857
-0.284146 -0.128639 0.339148 0.827235 -1.03779e-007 -0.561857
-0.35004 -0.128639 0.339148 -0.827223 -1.03623e-007 -0.561874
0.342776 -0.145583 0.339148 0.827232 1.01319e-007 -0.56186
0.276881 -0.145583 0.339148 -0.827234 1.01429e-007 -0.561857
-0.284146 -0.145583 0.339148 0.827235 1.01429e-007 -0.561857
-0.35004 -0.145583 0.339148 -0.827223 1.01276e-007 -0.561874
0.342776 -0.162527 0.339148 0.827232 6.53753e-008 -0.56186
0.276881 -0.162527 0.339148 -0.827234 6.54438e-008 -0.561857
-0.284146 -0.162527 0.339148 0.827235 6.54435e-008 -0.561857
-0.35004 -0.162527 0.339148 -0.827223 6.53639e-008 -0.561874
0.342776 -0.179471 0.339148 0.827232 1.80081e-009 -0.56186
0.276881 -0.179471 0.339148 -0.827234 1.80269e-009 -0.561857
-0.284146 -0.179471 0.339148 0.827235 1.80268e-009 -0.561857
-0.35004 -0.179471 0.339148 -0.827223 1.8005e-009 -0.561874
0.342776 -0.196414 0.339148 0.827232 1.44746e-009 -0.56186
0.276881 -0.196414 0.339148 -0.827234 1.44903e-009 -0.561857
-0.284146 -0.196414 0.339148 0.827235 1.44904e-009 -0.561857
-0.35004 -0.196414 0.339148 -0.827223 1.44685e-009 -0.561874
0.342776 -0.213358 0.339148 0.827232 -6.62758e-008 -0.56186
0.276881 -0.213358 0.339148 -0.827234 -6.63452e-008 -0.561857
-0.284146 -0.213358 0.339148 0.827235 -6.6345e-008 -0.561857
-0.35004 -0.213358 0.339148 -0.827223 -6.62642e-008 -0.561874
0.342776 -0.230301 0.339148 0.827232 -1.05114e-007 -0.56186
0.276881 -0.230301 0.339148 -0.827234 -1.05228e-007 -0.561857
-0.284146 -0.230301 0.339148 0.827235 -1.05228e-007 -0.561857
-0.35004 -0.230301 0.339148 -0.827223 -1.0507e-007 -0.561874
0.342776 -0.247246 0.339148 0.827232 1.03313e-007 -0.56186
0.276881 -0.247246 0.339148 -0.827234 1.03425e-007 -0.561857
-0.284146 -0.247246 0.339148 0.827235 1.03426e-007 -0.561857
-0.35004 -0.247246 0.339148 -0.827223 1.03269e-007 -0.561874
0.342776 -0.26419 0.339148 0.827232 6.42812e-008 -0.56186
0.276881 -0.26419 0.339148 -0.827234 6.43485e-008 -0.561857
-0.284146 -0.26419 0.339148 0.827235 6.43482e-008 -0.561857
-0.35004 -0.26419 0.339148 -0.827223 6.42708e-008 -0.561874
0.342776 -0.281133 0.339148 0.827232 1.99451e-009 -0.56186
0.276881 -0.281133 0.339148 -0.827234 1.99672e-009 -0.561857
-0.284146 -0.281133 0.339148 0.827235 1.99673e-009 -0.561857
-0.35004 -0.281133 0.339148 -0.827223 1.99344e-009 -0.561874
0.342776 -0.298077 0.339148 0.827232 -1.09411e-009 -0.56186
0.276881 -0.298077 0.339148 -0.827234 -1.09537e-009 -0.561857
-0.284146 -0.298077 0.339148 0.827235 -1.09539e-009 -0.561857
-0.35004 -0.298077 0.339148 -0.827223 -1.09319e-009 -0.561874
0.342776 -0.315021 0.339148 0.827232 -6.37342e-008 -0.56186
0.276881 -0.315021 0.339148 -0.827234 -6.38009e-008 -0.561857
-0.284146 -0.315021 0.339148 0.827235 -6.38006e-008 -0.561857
-0.35004 -0.315021 0.339148 -0.827223 -6.37243e-008 -0.561874
0.342776 -0.331964 0.339148 0.827232 -1.05308e-007 -0.56186
0.276881 -0.331964 0.339148 -0.827234 -1.05422e-007 -0.561857
-0.284146 -0.331964 0.339148 0.827235 -1.05422e-007 -0.561857
-0.35004 -0.331964 0.339148 -0.827223 -1.05263e-007 -0.561874
0.342776 -0.348909 0.339148 0.827232 1.05308e-007 -0.56186
0.276881 -0.348909 0.339148 -0.827234 1.05422e-007 -0.561857
-0.284146 -0.348909 0.339148 0.827235 1.05422e-007 -0.561857
-0.35004 -0.348909 0.339148 -0.827223 1.05263e-007 -0.561874
0.342776 -0.365853 0.339148 0.827232 6.37342e-008 -0.56186
0.276881 -0.365853 0.339148 -0.827234 6.38009e-008 -0.561857
-0.284146 -0.365853 0.339148 0.827235 6.38006e-008 -0.561857
-0.35004 -0.365853 0.339148 -0.827223 6.37243e-008 -0.561874
0.342776 -0.382796 0.339148 0.827232 1.09411e-009 -0.56186
0.276881 -0.382796 0.339148 -0.827234 1.09537e-009 -0.561857
-0.284146 -0.382796 0.339148 0.827235 1.09539e-009 -0.561857
-0.35004 -0.382796 0.339148 -0.827223 1.09319e-009 -0.561874
0.342776 -0.39974 0.339148 0.827232 -6.41216e-008 -0.56186
0.276881 -0.39974 0.339148 -0.827234 -6.41889e-008 -0.561857
-0.284146 -0.39974 0.339148 0.827235 -6.41886e-008 -0.561857
-0.35004 -0.39974 0.339148 -0.827223 -6.41101e-008 -0.561874
0.342776 -0.416683 0.339148 0.827232 -1.00225e-007 -0.56186
0.276881 -0.416683 0.339148 -0.827234 -1.00333e-007 -0.561857
-0.284146 -0.416683 0.339148 0.827235 -1.00334e-007 -0.561857
-0.35004 -0.416683 0.339148 -0.827223 -1.00183e-007 -0.561874
0.342776 -0.433628 0.339148 0.827232 1.00225e-007 -0.56186
0.276881 -0.433628 0.339148 -0.827234 1.00333e-007 -0.561857
-0.284146 -0.433628 0.339148 0.827235 1.00334e-007 -0.561857
-0.35004 -0.433628 0.339148 -0.827223 1.00183e-007 -0.561874
0.342776 -0.450572 0.339148 0.827232 6.23208e-008 -0.56186
0.276881 -0.450572 0.339148 -0.827234 6.23862e-008 -0.561857
-0.284146 -0.450572 0.339148 0.827235 6.23859e-008 -0.561857
-0.35004 -0.450572 0.339148 -0.827223 6.23095e-008 -0.561874
0.342776 -0.467515 0.339148 0.827232 -3.98903e-009 -0.56186
0.276881 -0.467515 0.339148 -0.827234 -3.99343e-009 -0.561857
-0.284146 -0.467515 0.339148 0.827235 -3.99346e-009 -0.561857
-0.35004 -0.467515 0.339148 -0.827223 -3.98688e-009 -0.561874
0.342776 -0.484459 0.339148 0.827232 3.98903e-009 -0.56186
0.276881 -0.484459 0.339148 -0.827234 3.99343e-009 -0.561857
-0.284146 -0.484459 0.339148 0.827235 3.99346e-009 -0.561857
-0.35004 -0.484459 0.339148 -0.827223 3.98688e-009 -0.561874
0.342776 -0.501403 0.339148 0.827232 -6.59223e-008 -0.56186
0.276881 -0.501403 0.339148 -0.827234 -6.59915e-008 -0.561857
-0.284146 -0.501403 0.339148 0.827235 -6.59912e-008 -0.561857
-0.35004 -0.501403 0.339148 -0.827223 -6.59105e-008 -0.561874
0.342776 -0.518346 0.339148 0.827232 -1.02413e-007 -0.56186
0.276881 -0.518346 0.339148 -0.827234 -1.02524e-007 -0.561857
-0.284146 -0.518346 0.339148 0.827235 -1.02525e-007 -0.561857
-0.35004 -0.518346 0.339148 -0.827223 -1.02369e-007 -0.561874
0.342776 -0.535291 0.339148 0.827232 1.10003e-007 -0.56186
0.276881 -0.535291 0.339148 -0.827234 1.10123e-007 -0.561857
-0.284146 -0.535291 0.339148 0.827235 1.10123e-007 -0.561857
-0.35004 -0.535291 0.339148 -0.827223 1.09957e-007 -0.561874
0.342776 -0.552234 0.339148 0.827232 5.90387e-008 -0.56186
0.276881 -0.552234 0.339148 -0.827234 5.91003e-008 -0.561857
-0.284146 -0.552234 0.339148 0.827235 5.91e-008 -0.561857
