ply
format ascii 1.0
element vertex 835
property float x
property float y
property float z
property float nx
property float ny
property float nz
end_header
0.115366 0.0199795 0.114847 -6.28236e-019 -1 -3.70567e-017
0.0971035 0.0199795 0.114847 9.30831e-018 -1 -2.42232e-017
0.0788397 0.0199795 0.114847 4.03271e-018 -1 1.20695e-017
0.0605758 0.0199795 0.114847 6.36029e-018 -1 -2.4218e-017
0.042312 0.0199795 0.114847 -3.28712e-018 -1 -2.42184e-017
0.0240492 0.0199795 0.114847 -6.25168e-019 -1 1.2099e-017
0.00578541 0.0199795 0.114847 -0 -1 -0
-0.0124784 0.0199795 0.114847 4.31012e-018 -1 -4.18008e-017
-0.0307412 0.0199795 0.114847 -3.28856e-018 -1 7.8313e-018
-0.049005 0.0199795 0.114847 -3.98158e-018 -1 -2.34605e-017
-0.0672688 0.0199795 0.114847 -1.37687e-017 -1 -2.42192e-017
-0.0855327 0.0199795 0.114847 -3.28681e-018 -1 -2.07084e-017
-0.103795 0.0199795 0.114847 -9.50527e-019 -1 -2.42164e-017
-0.122059 0.0199795 0.114847 -0 -1 2.93263e-017
-0.140323 0.0199795 0.114847 -9.47634e-019 -1 -2.42211e-017
-0.158586 0.0199795 0.114847 6.27888e-018 -1 -2.42152e-017
-0.17685 0.0199795 0.114847 -1.20302e-017 -1 -1.43342e-017
-0.195113 0.0199795 0.114847 6.28238e-019 -1 3.70577e-017
-0.213376 0.0199795 0.114847 2.6717e-018 -1 1.79414e-017
-0.23164 0.0199795 0.114847 8.17929e-019 -1 1.13028e-017
-0.249904 0.0199795 0.114847 -1.02783e-017 -1 -1.90627e-017
-0.268168 0.0199795 0.114847 6.28235e-019 -1 3.70587e-017
-0.286431 0.0199795 0.114847 -0.00485268 -0.999988 1.48733e-008
-0.304694 0.0199795 0.114847 -0.0409404 -0.999162 6.26028e-005
-0.322958 0.0206563 0.114847 -0.137905 -0.990445 0.00122056
-0.340545 0.0233622 0.115524 -0.335726 -0.941949 0.00451582
-0.356103 0.0301266 0.118229 -0.632737 -0.774357 0.00390965
0.367674 0.08289 0.0999657 0.632749 0.774347 0.0039089
0.352116 0.0896554 0.0972597 0.335726 0.941949 0.00451237
0.334529 0.0923613 0.096583 0.137898 0.990446 0.00121937
0.316265 0.093037 0.096583 0.0409227 0.999162 6.25314e-005
0.298001 0.093037 0.096583 0.00484487 0.999988 9.0993e-009
0.279739 0.093037 0.096583 -1.72295e-017 1 -1.39807e-016
0.261475 0.093037 0.096583 0 1 0
0.243211 0.093037 0.096583 -1.15014e-017 1 3.77885e-017
0.224947 0.093037 0.096583 -0 1 -0
0.206684 0.093037 0.096583 -1.72295e-017 1 -1.39811e-016
0.18842 0.093037 0.096583 0 1 0
0.170157 0.093037 0.096583 4.05339e-021 1 -5.15286e-017
0.151894 0.093037 0.096583 4.05333e-021 1 5.15409e-017
0.13363 0.093037 0.096583 4.84723e-017 1 -3.79793e-018
0.115366 0.093037 0.096583 -1.72295e-017 1 1.39807e-016
0.0971035 0.093037 0.096583 -1.72295e-017 1 -1.39815e-016
0.0788397 0.093037 0.096583 0 1 0
0.0605758 0.093037 0.096583 1.31593e-017 1 -2.00791e-017
0.042312 0.093037 0.096583 1.72367e-017 1 -4.00219e-017
0.0240492 0.093037 0.096583 0 1 0
0.00578541 0.093037 0.096583 0 1 0
-0.0124784 0.093037 0.096583 1.72367e-017 1 -4.00224e-017
-0.0307412 0.093037 0.096583 1.72366e-017 1 4.00224e-017
-0.049005 0.093037 0.096583 1.71156e-017 1 -6.77037e-017
-0.0672688 0.093037 0.096583 -1.31593e-017 1 2.00811e-017
-0.0855327 0.093037 0.096583 -4.05335e-021 1 5.15348e-017
-0.103795 0.093037 0.096583 -4.05338e-021 1 -5.15307e-017
-0.122059 0.093037 0.096583 -7.02218e-032 1 -7.62439e-017
-0.140323 0.093037 0.096583 -4.05339e-021 1 5.15327e-017
-0.158586 0.093037 0.096583 -4.09627e-018 1 -7.46733e-017
-0.17685 0.093037 0.096583 4.81207e-017 1 -1.52413e-016
-0.195113 0.093037 0.096583 -4.09625e-018 1 7.46324e-017
-0.213376 0.093037 0.096583 0 1 0
-0.23164 0.093037 0.096583 1.7229e-017 1 1.40265e-016
-0.249904 0.093037 0.096583 1.15025e-017 1 -3.77884e-017
-0.268168 0.093037 0.096583 -0 1 -0
-0.286431 0.093037 0.096583 -0.00484487 0.999988 9.09928e-009
-0.304694 0.093037 0.096583 -0.0409228 0.999162 -6.29123e-005
-0.322958 0.0923613 0.096583 -0.13802 0.990405 -0.00693243
-0.340545 0.0896554 0.0959073 -0.335725 0.941949 -0.00451277
0.378498 0.0713905 0.106053 0.894413 0.44724 0.00139598
-0.356103 0.08289 0.0932013 -0.63275 0.774346 -0.00390899
-0.366927 0.0713905 0.0871137 -0.894413 0.44724 -0.00139591
0.382556 0.0565083 0.096583 1 -6.29387e-006 3.02044e-007
-0.370985 0.0565083 0.096583 -1 -6.35033e-006 -5.26136e-007
0.378498 0.0416271 0.0871137 0.894418 -0.44723 -0.00139417
-0.366927 0.0416271 0.106053 -0.894418 -0.44723 0.00139411
0.367674 0.0301266 0.0932013 0.632736 -0.774358 -0.00390962
0.352116 0.0233622 0.0959073 0.335727 -0.941949 -0.00451548
0.334529 0.0206563 0.096583 0.138027 -0.990404 -0.00692872
0.316265 0.0199795 0.096583 0.0409403 -0.999162 -6.28704e-005
0.298001 0.0199795 0.096583 0.00485268 -0.999988 9.11396e-009
0.279739 0.0199795 0.096583 4.30738e-018 -1 3.49516e-017
0.261475 0.0199795 0.096583 -1.07131e-017 -1 -3.33002e-018
0.243211 0.0199795 0.096583 -6.3087e-018 -1 -2.56791e-017
0.224947 0.0199795 0.096583 4.30332e-018 -1 1.6578e-017
0.206684 0.0199795 0.096583 4.30738e-018 -1 3.49527e-017
0.18842 0.0199795 0.096583 -8.71975e-020 -1 1.23529e-017
0.170157 0.0199795 0.096583 4.30738e-018 -1 -3.49537e-017
0.151894 0.0199795 0.096583 -1.02407e-018 -1 -1.86683e-017
0.13363 0.0199795 0.096583 -1.22064e-017 -1 1.23529e-017
0.115366 0.0199795 0.096583 -2.66771e-018 -1 5.08344e-018
0.0971035 0.0199795 0.096583 -2.66771e-018 -1 -5.08037e-018
0.0788397 0.0199795 0.096583 6.8943e-018 -1 -1.66702e-018
0.0605758 0.0199795 0.096583 -3.28983e-018 -1 5.01976e-018
0.042312 0.0199795 0.096583 -3.28992e-018 -1 5.04922e-018
0.0240492 0.0199795 0.096583 4.30916e-018 -1 1.00056e-017
0.00578541 0.0199795 0.096583 -0 -1 1.74228e-017
-0.0124784 0.0199795 0.096583 -2.66429e-018 -1 -1.46515e-017
-0.0307412 0.0199795 0.096583 3.28992e-018 -1 5.04896e-018
-0.049005 0.0199795 0.096583 -1.04589e-019 -1 -3.8215e-017
-0.0672688 0.0199795 0.096583 0 -1 0
-0.0855327 0.0199795 0.096583 4.31095e-018 -1 1.49397e-017
-0.103795 0.0199795 0.096583 2.66771e-018 -1 5.0819e-018
-0.122059 0.0199795 0.096583 -0 -1 1.59778e-017
-0.140323 0.0199795 0.096583 -4.30738e-018 -1 3.49516e-017
-0.158586 0.0199795 0.096583 2.66771e-018 -1 5.08958e-018
-0.17685 0.0199795 0.096583 -1.20301e-017 -1 1.2353e-017
-0.195113 0.0199795 0.096583 -4.30738e-018 -1 3.49527e-017
-0.213376 0.0199795 0.096583 1.02407e-018 -1 1.86601e-017
-0.23164 0.0199795 0.096583 1.07131e-017 -1 2.97047e-018
-0.249904 0.0199795 0.096583 1.07131e-017 -1 1.11419e-019
-0.268168 0.0199795 0.096583 -4.30738e-018 -1 3.49547e-017
-0.286431 0.0199795 0.096583 -0.00485268 -0.999988 9.11393e-009
-0.304694 0.0199795 0.096583 -0.0409404 -0.999162 6.24906e-005
-0.322958 0.0206563 0.096583 -0.137905 -0.990445 0.00122056
-0.340545 0.0233622 0.0972597 -0.335726 -0.941949 0.00451521
-0.356103 0.0301266 0.0999657 -0.632737 -0.774357 0.00390959
0.367674 0.08289 0.0817018 0.632749 0.774347 0.00390899
0.352116 0.0896554 0.0789959 0.335726 0.941949 0.00451258
0.334529 0.0923613 0.0783202 0.13802 0.990405 0.00693259
0.316265 0.093037 0.0783202 0.0409227 0.999162 6.29138e-005
0.298001 0.093037 0.0783202 0.00484487 0.999988 -9.21428e-009
0.279739 0.093037 0.0783202 4.08877e-018 1 2.84321e-017
0.261475 0.093037 0.0783202 -0 1 -0
0.243211 0.093037 0.0783202 -9.80299e-018 1 8.6884e-018
0.224947 0.093037 0.0783202 0 1 0
0.206684 0.093037 0.0783202 4.08879e-018 1 2.84321e-017
0.18842 0.093037 0.0783202 -0 1 -0
0.170157 0.093037 0.0783202 4.36863e-021 1 5.15271e-017
0.151894 0.093037 0.0783202 4.36857e-021 1 -5.15394e-017
0.13363 0.093037 0.0783202 -1.37925e-016 1 -1.35158e-016
0.115366 0.093037 0.0783202 4.08879e-018 1 -2.8428e-017
0.0971035 0.093037 0.0783202 4.08878e-018 1 2.84362e-017
0.0788397 0.093037 0.0783202 -0 1 -0
0.0605758 0.093037 0.0783202 1.31595e-017 1 2.00783e-017
0.042312 0.093037 0.0783202 -4.0811e-018 1 -7.13589e-017
0.0240492 0.093037 0.0783202 -1.31598e-017 1 2.01951e-017
0.00578541 0.093037 0.0783202 0 1 0
-0.0124784 0.093037 0.0783202 -4.0811e-018 1 -7.13588e-017
-0.0307412 0.093037 0.0783202 -4.0811e-018 1 7.13589e-017
-0.049005 0.093037 0.0783202 -3.73816e-017 1 1.90894e-016
-0.0672688 0.093037 0.0783202 0 1 0
-0.0855327 0.093037 0.0783202 -4.36859e-021 1 -5.15332e-017
-0.103795 0.093037 0.0783202 -4.36861e-021 1 5.15271e-017
-0.122059 0.093037 0.0783202 -0 1 9.0967e-018
-0.140323 0.093037 0.0783202 -4.36863e-021 1 -5.15292e-017
-0.158586 0.093037 0.0783202 1.72202e-017 1 -3.67226e-017
-0.17685 0.093037 0.0783202 4.81208e-017 1 -1.16253e-016
-0.195113 0.093037 0.0783202 1.72201e-017 1 3.67636e-017
-0.213376 0.093037 0.0783202 -0 1 -0
-0.23164 0.093037 0.0783202 -4.08866e-018 1 -2.88861e-017
-0.249904 0.093037 0.0783202 6.46565e-017 1 6.8783e-017
-0.268168 0.093037 0.0783202 -4.08879e-018 1 2.84402e-017
-0.286431 0.093037 0.0783202 -0.00484487 0.999988 -9.21425e-009
-0.304694 0.093037 0.0783202 -0.0409228 0.999162 -6.25302e-005
-0.322958 0.0923613 0.0783202 -0.137898 0.990446 -0.00121934
-0.340545 0.0896554 0.0776434 -0.335725 0.941949 -0.00451269
0.378498 0.0713905 0.0877894 0.894413 0.44724 0.00139603
-0.356103 0.08289 0.0749375 -0.63275 0.774346 -0.0039088
-0.366927 0.0713905 0.0688499 -0.894413 0.44724 -0.00139591
0.382556 0.0565083 0.0783202 1 -6.26866e-006 5.41465e-007
-0.370985 0.0565083 0.0783202 -1 -6.37555e-006 -2.86778e-007
0.378498 0.0416271 0.0688499 0.894418 -0.44723 -0.00139417
-0.366927 0.0416271 0.0877894 -0.894418 -0.44723 0.00139416
0.367674 0.0301266 0.0749375 0.632735 -0.774358 -0.00390943
0.352116 0.0233622 0.0776434 0.335727 -0.941949 -0.00451539
0.334529 0.0206563 0.0783202 0.137905 -0.990445 -0.00122059
0.316265 0.0199795 0.0783202 0.0409403 -0.999162 -6.24885e-005
0.298001 0.0199795 0.0783202 0.00485268 -0.999988 -9.22912e-009
0.279739 0.0199795 0.0783202 -1.02219e-018 -1 -7.10801e-018
0.261475 0.0199795 0.0783202 9.69609e-018 -1 2.57281e-018
0.243211 0.0199795 0.0783202 4.67594e-019 -1 -3.71376e-018
0.224947 0.0199795 0.0783202 -3.69123e-018 -1 -1.0852e-017
0.206684 0.0199795 0.0783202 -1.0222e-018 -1 -7.10802e-018
0.18842 0.0199795 0.0783202 -8.72454e-020 -1 -2.39149e-018
0.170157 0.0199795 0.0783202 -1.02219e-018 -1 7.10904e-018
0.151894 0.0199795 0.0783202 4.30504e-018 -1 -9.17861e-018
0.13363 0.0199795 0.0783202 -1.87323e-018 -1 -1.18445e-017
0.115366 0.0199795 0.0783202 -1.0222e-018 -1 7.10699e-018
0.0971035 0.0199795 0.0783202 -3.27645e-021 -1 3.86453e-017
0.0788397 0.0199795 0.0783202 7.7948e-020 -1 -3.07468e-017
0.0605758 0.0199795 0.0783202 -3.28987e-018 -1 -5.01958e-018
0.042312 0.0199795 0.0783202 -3.28996e-018 -1 -5.04878e-018
0.0240492 0.0199795 0.0783202 -1.02028e-018 -1 1.78397e-017
0.00578541 0.0199795 0.0783202 -0 -1 6.14319e-018
-0.0124784 0.0199795 0.0783202 4.14264e-022 -1 -1.89148e-017
-0.0307412 0.0199795 0.0783202 3.28996e-018 -1 -5.04878e-018
-0.049005 0.0199795 0.0783202 -9.7435e-020 -1 3.87545e-017
-0.0672688 0.0199795 0.0783202 3.28987e-018 -1 5.01984e-018
-0.0855327 0.0199795 0.0783202 3.28996e-018 -1 5.04903e-018
-0.103795 0.0199795 0.0783202 3.27646e-021 -1 -3.86453e-017
-0.122059 0.0199795 0.0783202 -0 -1 2.32055e-017
-0.140323 0.0199795 0.0783202 1.02219e-018 -1 -7.10801e-018
-0.158586 0.0199795 0.0783202 3.27644e-021 -1 -3.8653e-017
-0.17685 0.0199795 0.0783202 -1.20302e-017 -1 -2.39159e-018
-0.195113 0.0199795 0.0783202 1.02219e-018 -1 -7.10904e-018
-0.213376 0.0199795 0.0783202 -4.30504e-018 -1 9.1868e-018
-0.23164 0.0199795 0.0783202 -4.30492e-018 -1 9.41598e-018
-0.249904 0.0199795 0.0783202 -9.69608e-018 -1 -8.6862e-019
-0.268168 0.0199795 0.0783202 -4.30503e-018 -1 -9.19293e-018
-0.286431 0.0199795 0.0783202 -0.00485268 -0.999988 -9.2291e-009
-0.304694 0.0199795 0.0783202 -0.0409404 -0.999162 6.28727e-005
-0.322958 0.0206563 0.0783202 -0.138027 -0.990404 0.00692878
-0.340545 0.0233622 0.0789959 -0.335726 -0.941949 0.00451542
-0.356103 0.0301266 0.0817018 -0.632737 -0.774357 0.00390968
0.367674 0.08289 0.0634391 0.632749 0.774347 0.00390888
0.352116 0.0896554 0.0607331 0.335726 0.941949 0.00451293
0.334529 0.0923613 0.0600564 0.134311 0.990924 0.00548376
0.316265 0.093037 0.0600564 0.0409227 0.999162 6.27417e-005
0.298001 0.093037 0.0600564 0.00484486 0.999988 1.60177e-010
0.279739 0.093037 0.0600564 1.44988e-017 1 4.84722e-017
0.261475 0.093037 0.0600564 -0 1 -0
0.243211 0.093037 0.0600564 0 1 0
0.224947 0.093037 0.0600564 0 1 0
0.206684 0.093037 0.0600564 4.79336e-017 1 7.27076e-017
0.18842 0.093037 0.0600564 0 1 0
0.170157 0.093037 0.0600564 4.41399e-017 1 4.84714e-017
0.151894 0.093037 0.0600564 -1.4418e-017 1 7.27075e-017
0.13363 0.093037 0.0600564 0 1 0
0.115366 0.093037 0.0600564 2.51171e-017 1 7.27077e-017
0.0971035 0.093037 0.0600564 4.79338e-017 1 7.27076e-017
0.0788397 0.093037 0.0600564 8.3966e-017 1 7.27075e-017
0.0605758 0.093037 0.0600564 -2.54364e-017 1 4.84718e-017
0.042312 0.093037 0.0600564 -1.06799e-016 1 7.27076e-017
0.0240492 0.093037 0.0600564 -0 1 -0
0.00578541 0.093037 0.0600564 0 1 0
-0.0124784 0.093037 0.0600564 -1.22561e-016 1 7.27076e-017
-0.0307412 0.093037 0.0600564 -1.22561e-016 1 7.27076e-017
-0.049005 0.093037 0.0600564 1.06814e-016 1 7.27076e-017
-0.0672688 0.093037 0.0600564 -1.284e-016 1 4.84717e-017
-0.0855327 0.093037 0.0600564 0 1 0
-0.103795 0.093037 0.0600564 3.79741e-018 1 4.84717e-017
-0.122059 0.093037 0.0600564 1.22223e-032 1 -1.86437e-017
-0.140323 0.093037 0.0600564 -2.51209e-017 1 4.84719e-017
-0.158586 0.093037 0.0600564 -4.41409e-017 1 7.27077e-017
-0.17685 0.093037 0.0600564 -5.03656e-020 1 -1.02888e-016
-0.195113 0.093037 0.0600564 3.72365e-017 1 4.84716e-017
-0.213376 0.093037 0.0600564 -0 1 -0
-0.23164 0.093037 0.0600564 -0 1 -0
-0.249904 0.093037 0.0600564 -1.05292e-017 1 4.8472e-017
-0.268168 0.093037 0.0600564 -1.44909e-017 1 7.27075e-017
-0.286431 0.093037 0.0600564 -0.00484487 0.999988 1.60177e-010
-0.304694 0.093037 0.0600564 -0.0409228 0.999162 -6.27449e-005
-0.322958 0.0923613 0.0600564 -0.133243 0.991078 -0.00309209
-0.340545 0.0896554 0.0593796 -0.335725 0.941949 -0.004513
0.378498 0.0713905 0.0695267 0.894413 0.44724 0.00139619
-0.356103 0.08289 0.0566737 -0.63275 0.774346 -0.0039089
-0.366927 0.0713905 0.0505861 -0.894413 0.44724 -0.00139612
0.382556 0.0565083 0.0600564 1 -6.32201e-006 4.13007e-007
-0.370985 0.0565083 0.0600564 -1 -6.3222e-006 -4.15302e-007
0.378498 0.0416271 0.0505861 0.894418 -0.44723 -0.00139439
-0.366927 0.0416271 0.0695267 -0.894418 -0.44723 0.00139432
0.367674 0.0301266 0.0566737 0.632735 -0.774358 -0.00390954
0.352116 0.0233622 0.0593796 0.335727 -0.941949 -0.0045157
0.334529 0.0206563 0.0600564 0.133254 -0.991077 -0.00309139
0.316265 0.0199795 0.0600564 0.0409403 -0.999162 -6.27031e-005
0.298001 0.0199795 0.0600564 0.00485268 -0.999988 1.60435e-010
0.279739 0.0199795 0.0600564 -3.6247e-018 -1 -1.2118e-017
0.261475 0.0199795 0.0600564 0 -1 0
0.243211 0.0199795 0.0600564 -1.67173e-018 -1 -1.2118e-017
0.224947 0.0199795 0.0600564 -1.10343e-017 -1 -1.2118e-017
0.206684 0.0199795 0.0600564 -1.19834e-017 -1 -1.21179e-017
0.18842 0.0199795 0.0600564 -1.25914e-020 -1 -2.57189e-017
0.170157 0.0199795 0.0600564 -1.1035e-017 -1 -1.2118e-017
0.151894 0.0199795 0.0600564 9.30867e-018 -1 -6.05893e-018
0.13363 0.0199795 0.0600564 -1.03882e-018 -1 -5.71566e-018
0.115366 0.0199795 0.0600564 8.35986e-018 -1 -1.21179e-017
0.0971035 0.0199795 0.0600564 9.30948e-018 -1 -1.21177e-017
0.0788397 0.0199795 0.0600564 -2.57405e-017 -1 -1.2118e-017
0.0605758 0.0199795 0.0600564 6.35911e-018 -1 -1.21179e-017
0.042312 0.0199795 0.0600564 -3.21069e-017 -1 -1.21179e-017
0.0240492 0.0199795 0.0600564 6.35636e-018 -1 -1.2118e-017
0.00578541 0.0199795 0.0600564 -0 -1 -0
-0.0124784 0.0199795 0.0600564 -1.17057e-017 -1 -1.21179e-017
-0.0307412 0.0199795 0.0600564 -1.37668e-017 -1 -1.21179e-017
-0.049005 0.0199795 0.0600564 -1.2308e-017 -1 -1.21179e-017
-0.0672688 0.0199795 0.0600564 -0 -1 -0
-0.0855327 0.0199795 0.0600564 4.75497e-018 -1 -1.2118e-017
-0.103795 0.0199795 0.0600564 -9.49354e-019 -1 -1.21179e-017
-0.122059 0.0199795 0.0600564 3.05557e-033 -1 2.22221e-018
-0.140323 0.0199795 0.0600564 6.28022e-018 -1 -1.21179e-017
-0.158586 0.0199795 0.0600564 6.28006e-018 -1 -1.21179e-017
-0.17685 0.0199795 0.0600564 -0 -1 -0
-0.195113 0.0199795 0.0600564 -9.30912e-018 -1 -1.21179e-017
-0.213376 0.0199795 0.0600564 2.67398e-018 -1 -1.21179e-017
-0.23164 0.0199795 0.0600564 3.59765e-018 -1 -1.2118e-017
-0.249904 0.0199795 0.0600564 2.63229e-018 -1 -6.05908e-018
-0.268168 0.0199795 0.0600564 2.6728e-018 -1 -1.21177e-017
-0.286431 0.0199795 0.0600564 -0.00485268 -0.999988 1.60435e-010
-0.304694 0.0199795 0.0600564 -0.0409404 -0.999162 6.27007e-005
-0.322958 0.0206563 0.0600564 -0.134321 -0.990923 0.00548131
-0.340545 0.0233622 0.0607331 -0.335726 -0.941949 0.00451577
-0.356103 0.0301266 0.0634391 -0.632737 -0.774357 0.00390957
0.367674 0.08289 0.0451753 0.632749 0.774347 0.00390877
0.352116 0.0896554 0.0424693 0.335726 0.941949 0.00451262
0.334529 0.0923613 0.0417925 0.137898 0.990446 0.00121937
0.316265 0.093037 0.0417925 0.0409227 0.999162 6.25296e-005
0.298001 0.093037 0.0417925 0.00484487 0.999988 9.20423e-009
0.279739 0.093037 0.0417925 8.37856e-021 1 1.03061e-016
0.261475 0.093037 0.0417925 0 1 0
0.243211 0.093037 0.0417925 -2.3727e-017 1 1.50893e-017
0.224947 0.093037 0.0417925 -0 1 -0
0.206684 0.093037 0.0417925 8.37851e-021 1 1.03061e-016
0.18842 0.093037 0.0417925 0 1 0
0.170157 0.093037 0.0417925 2.50325e-018 1 1.99711e-016
0.151894 0.093037 0.0417925 2.50322e-018 1 -1.997e-016
0.13363 0.093037 0.0417925 -1.37925e-016 1 4.1512e-017
0.115366 0.093037 0.0417925 8.3785e-021 1 -1.03065e-016
0.0971035 0.093037 0.0417925 8.37852e-021 1 1.03057e-016
0.0788397 0.093037 0.0417925 0 1 0
0.0605758 0.093037 0.0417925 -1.31552e-017 1 -3.12203e-017
0.042312 0.093037 0.0417925 -2.50005e-018 1 -4.83894e-017
0.0240492 0.093037 0.0417925 0 1 0
0.00578541 0.093037 0.0417925 0 1 0
-0.0124784 0.093037 0.0417925 -2.50005e-018 1 -4.83894e-017
-0.0307412 0.093037 0.0417925 -2.50005e-018 1 4.83899e-017
-0.049005 0.093037 0.0417925 2.74083e-017 1 -6.69089e-017
-0.0672688 0.093037 0.0417925 -0 1 -0
-0.0855327 0.093037 0.0417925 -2.50323e-018 1 -1.99706e-016
-0.103795 0.093037 0.0417925 -2.50324e-018 1 1.99711e-016
-0.122059 0.093037 0.0417925 -0 1 5.55112e-017
-0.140323 0.093037 0.0417925 -2.50325e-018 1 -1.99708e-016
-0.158586 0.093037 0.0417925 -1.06754e-017 1 -7.18905e-017
-0.17685 0.093037 0.0417925 4.81208e-017 1 2.26067e-017
-0.195113 0.093037 0.0417925 -1.06754e-017 1 7.18496e-017
-0.213376 0.093037 0.0417925 0 1 0
-0.23164 0.093037 0.0417925 -8.37836e-021 1 -1.02603e-016
-0.249904 0.093037 0.0417925 1.31237e-017 1 3.60323e-017
-0.268168 0.093037 0.0417925 -8.37848e-021 1 1.03053e-016
-0.286431 0.093037 0.0417925 -0.00484487 0.999988 9.20421e-009
-0.304694 0.093037 0.0417925 -0.0409228 0.999162 -6.29149e-005
-0.322958 0.0923613 0.0417925 -0.13802 0.990405 -0.00693254
-0.340545 0.0896554 0.0411169 -0.335725 0.941949 -0.00451265
0.378498 0.0713905 0.0512628 0.894413 0.44724 0.00139598
-0.356103 0.08289 0.0384109 -0.63275 0.774346 -0.00390902
-0.366927 0.0713905 0.0323233 -0.894413 0.44724 -0.00139596
0.382556 0.0565083 0.0417925 1 -6.37533e-006 2.85466e-007
-0.370985 0.0565083 0.0417925 -1 -6.26887e-006 -5.42771e-007
0.378498 0.0416271 0.0323233 0.894418 -0.44723 -0.00139422
-0.366927 0.0416271 0.0512628 -0.894418 -0.44723 0.00139411
0.367674 0.0301266 0.0384109 0.632736 -0.774358 -0.00390965
0.352116 0.0233622 0.0411169 0.335727 -0.941949 -0.00451536
0.334529 0.0206563 0.0417925 0.138027 -0.990404 -0.00692883
0.316265 0.0199795 0.0417925 0.0409403 -0.999162 -6.2873e-005
0.298001 0.0199795 0.0417925 0.00485268 -0.999988 9.21906e-009
0.279739 0.0199795 0.0417925 -2.09464e-021 -1 -2.57653e-017
0.261475 0.0199795 0.0417925 -1.07163e-017 -1 -3.52694e-018
0.243211 0.0199795 0.0417925 4.97194e-019 -1 6.59847e-018
0.224947 0.0199795 0.0417925 3.28311e-018 -1 -1.62979e-017
0.206684 0.0199795 0.0417925 -2.09463e-021 -1 -2.57653e-017
0.18842 0.0199795 0.0417925 -8.72282e-020 -1 -5.65174e-018
0.170157 0.0199795 0.0417925 -2.09465e-021 -1 2.57642e-017
0.151894 0.0199795 0.0417925 -2.66886e-018 -1 -1.79726e-017
0.13363 0.0199795 0.0417925 -1.8732e-018 -1 3.80132e-018
0.115366 0.0199795 0.0417925 -2.09462e-021 -1 2.57663e-017
0.0971035 0.0199795 0.0417925 -2.66886e-018 -1 -1.79624e-017
0.0788397 0.0199795 0.0417925 4.31995e-018 -1 -1.94599e-018
0.0605758 0.0199795 0.0417925 3.2888e-018 -1 7.80507e-018
0.042312 0.0199795 0.0417925 3.28889e-018 -1 7.83419e-018
0.0240492 0.0199795 0.0417925 -6.25014e-019 -1 1.20974e-017
0.00578541 0.0199795 0.0417925 6.11147e-033 -1 1.47882e-017
-0.0124784 0.0199795 0.0417925 3.97257e-022 -1 1.89146e-017
-0.0307412 0.0199795 0.0417925 -3.28889e-018 -1 7.83394e-018
-0.049005 0.0199795 0.0417925 9.28078e-018 -1 2.50877e-017
-0.0672688 0.0199795 0.0417925 6.85207e-018 -1 1.65924e-017
-0.0855327 0.0199795 0.0417925 3.29098e-018 -1 -1.79321e-017
-0.103795 0.0199795 0.0417925 6.27905e-019 -1 -2.41634e-017
-0.122059 0.0199795 0.0417925 -6.11147e-033 -1 8.41744e-018
-0.140323 0.0199795 0.0417925 2.09464e-021 -1 -2.57653e-017
-0.158586 0.0199795 0.0417925 6.27901e-019 -1 -2.41557e-017
-0.17685 0.0199795 0.0417925 -1.20302e-017 -1 -5.65166e-018
-0.195113 0.0199795 0.0417925 2.09463e-021 -1 -2.57642e-017
-0.213376 0.0199795 0.0417925 2.66886e-018 -1 1.79665e-017
-0.23164 0.0199795 0.0417925 2.66878e-018 -1 1.77353e-017
-0.249904 0.0199795 0.0417925 -3.28302e-018 -1 1.66416e-017
-0.268168 0.0199795 0.0417925 2.66886e-018 -1 -1.79604e-017
-0.286431 0.0199795 0.0417925 -0.00485268 -0.999988 9.21904e-009
-0.304694 0.0199795 0.0417925 -0.0409404 -0.999162 6.24887e-005
-0.322958 0.0206563 0.0417925 -0.137905 -0.990445 0.00122056
-0.340545 0.0233622 0.0424693 -0.335726 -0.941949 0.00451546
-0.356103 0.0301266 0.0451753 -0.632737 -0.774357 0.00390946
0.367674 0.08289 0.0269114 0.632749 0.774347 0.00390896
0.352116 0.0896554 0.0242055 0.335726 0.941949 0.0045127
0.334529 0.0923613 0.0235298 0.13802 0.990405 0.00693248
0.316265 0.093037 0.0235298 0.0409227 0.999162 6.29157e-005
0.298001 0.093037 0.0235298 0.00484487 0.999988 -9.29137e-009
0.279739 0.093037 0.0235298 -0 1 -0
0.261475 0.093037 0.0235298 -0 1 -0
0.243211 0.093037 0.0235298 7.24291e-019 1 -6.04878e-017
0.224947 0.093037 0.0235298 8.67801e-021 1 1.03054e-016
0.206684 0.093037 0.0235298 8.67798e-021 1 -1.03058e-016
0.18842 0.093037 0.0235298 -0 1 -0
0.170157 0.093037 0.0235298 2.5034e-018 1 -1.99712e-016
0.151894 0.093037 0.0235298 2.50336e-018 1 1.99702e-016
0.13363 0.093037 0.0235298 4.84725e-017 1 8.39823e-017
0.115366 0.093037 0.0235298 8.67797e-021 1 1.03062e-016
0.0971035 0.093037 0.0235298 8.678e-021 1 -1.03054e-016
0.0788397 0.093037 0.0235298 -1.60327e-019 1 6.08041e-017
0.0605758 0.093037 0.0235298 2.50334e-018 1 -1.99941e-016
0.042312 0.093037 0.0235298 2.50009e-018 1 -4.83898e-017
0.0240492 0.093037 0.0235298 -0 1 -0
0.00578541 0.093037 0.0235298 0 1 0
-0.0124784 0.093037 0.0235298 -2.50009e-018 1 4.83898e-017
-0.0307412 0.093037 0.0235298 -2.50009e-018 1 -4.83898e-017
-0.049005 0.093037 0.0235298 -3.72169e-017 1 1.30265e-016
-0.0672688 0.093037 0.0235298 -3.72169e-017 1 -1.29187e-016
-0.0855327 0.093037 0.0235298 0 1 0
-0.103795 0.093037 0.0235298 -2.50339e-018 1 -1.99712e-016
-0.122059 0.093037 0.0235298 1.22229e-032 1 -6.96186e-017
-0.140323 0.093037 0.0235298 -2.5034e-018 1 1.9971e-016
-0.158586 0.093037 0.0235298 -8.67796e-021 1 1.03075e-016
-0.17685 0.093037 0.0235298 4.81208e-017 1 7.45288e-017
-0.195113 0.093037 0.0235298 -8.67801e-021 1 -1.03054e-016
-0.213376 0.093037 0.0235298 -0 1 -0
-0.23164 0.093037 0.0235298 -8.67782e-021 1 1.02604e-016
-0.249904 0.093037 0.0235298 1.31312e-017 1 6.65748e-017
-0.268168 0.093037 0.0235298 -8.67796e-021 1 -1.0305e-016
-0.286431 0.093037 0.0235298 -0.00484487 0.999988 -9.29135e-009
-0.304694 0.093037 0.0235298 -0.0409228 0.999162 -6.25291e-005
-0.322958 0.0923613 0.0235298 -0.137898 0.990446 -0.00121934
-0.340545 0.0896554 0.022853 -0.335725 0.941949 -0.00451244
0.378498 0.0713905 0.032999 0.894413 0.44724 0.00139597
-0.356103 0.08289 0.0201471 -0.63275 0.774346 -0.00390893
-0.366927 0.0713905 0.0140595 -0.894413 0.44724 -0.00139592
0.382556 0.0565083 0.0235298 1 -6.35006e-006 5.27815e-007
-0.370985 0.0565083 0.0235298 -1 -6.29414e-006 -3.00371e-007
0.378498 0.0416271 0.0140595 0.894418 -0.44723 -0.00139418
-0.366927 0.0416271 0.032999 -0.894418 -0.44723 0.0013941
0.367674 0.0301266 0.0201471 0.632736 -0.774358 -0.00390956
0.352116 0.0233622 0.022853 0.335727 -0.941949 -0.00451514
0.334529 0.0206563 0.0235298 0.137905 -0.990445 -0.00122059
0.316265 0.0199795 0.0235298 0.0409403 -0.999162 -6.24874e-005
0.298001 0.0199795 0.0235298 0.00485268 -0.999988 -9.30634e-009
0.279739 0.0199795 0.0235298 -2.16951e-021 -1 2.57646e-017
0.261475 0.0199795 0.0235298 4.80885e-019 -1 5.78209e-018
0.243211 0.0199795 0.0235298 4.80885e-019 -1 -5.78209e-018
0.224947 0.0199795 0.0235298 3.28288e-018 -1 1.63e-017
0.206684 0.0199795 0.0235298 -2.1695e-021 -1 2.57646e-017
0.18842 0.0199795 0.0235298 -8.7236e-020 -1 -1.86321e-017
0.170157 0.0199795 0.0235298 -2.16952e-021 -1 -2.57635e-017
0.151894 0.0199795 0.0235298 -2.66901e-018 -1 1.79712e-017
0.13363 0.0199795 0.0235298 -1.22064e-017 -1 -1.86322e-017
0.115366 0.0199795 0.0235298 -6.28013e-019 -1 2.41614e-017
0.0971035 0.0199795 0.0235298 -2.66901e-018 -1 1.7961e-017
0.0788397 0.0199795 0.0235298 -1.50308e-018 -1 1.743e-018
0.0605758 0.0199795 0.0235298 3.28878e-018 -1 -7.80489e-018
0.042312 0.0199795 0.0235298 -8.22913e-022 -1 3.78295e-017
0.0240492 0.0199795 0.0235298 -6.25022e-019 -1 -1.20974e-017
0.00578541 0.0199795 0.0235298 -0 -1 -0
-0.0124784 0.0199795 0.0235298 4.11456e-022 -1 -1.89148e-017
-0.0307412 0.0199795 0.0235298 -3.28887e-018 -1 -7.83401e-018
-0.049005 0.0199795 0.0235298 9.30422e-018 -1 -3.25663e-017
-0.0672688 0.0199795 0.0235298 -0 -1 -0
-0.0855327 0.0199795 0.0235298 -3.28887e-018 -1 7.83427e-018
-0.103795 0.0199795 0.0235298 6.28017e-019 -1 2.41644e-017
-0.122059 0.0199795 0.0235298 -3.05574e-033 -1 3.69131e-018
-0.140323 0.0199795 0.0235298 2.16951e-021 -1 2.57646e-017
-0.158586 0.0199795 0.0235298 6.28012e-019 -1 2.41568e-017
-0.17685 0.0199795 0.0235298 -1.20302e-017 -1 -1.86323e-017
-0.195113 0.0199795 0.0235298 2.1695e-021 -1 2.57635e-017
-0.213376 0.0199795 0.0235298 2.66901e-018 -1 -1.79651e-017
-0.23164 0.0199795 0.0235298 -9.70494e-018 -1 -3.59214e-018
-0.249904 0.0199795 0.0235298 -3.2828e-018 -1 -1.66437e-017
-0.268168 0.0199795 0.0235298 2.66901e-018 -1 1.7959e-017
-0.286431 0.0199795 0.0235298 -0.00485268 -0.999988 -9.30631e-009
-0.304694 0.0199795 0.0235298 -0.0409404 -0.999162 6.28746e-005
-0.322958 0.0206563 0.0235298 -0.138027 -0.990404 0.00692867
-0.340545 0.0233622 0.0242055 -0.335726 -0.941949 0.00451555
-0.356103 0.0301266 0.0269114 -0.632737 -0.774357 0.00390965
0.367674 0.08289 0.00864758 0.632749 0.774347 0.00390899
0.352116 0.0896554 0.00594272 0.335726 0.941949 0.00451315
0.334529 0.0923613 0.00526596 0.13802 0.990405 0.00693245
0.316265 0.093037 0.00526596 0.0409227 0.999162 6.28596e-005
0.298001 0.093037 0.00526596 0.00484487 0.999988 -1.49831e-008
0.279739 0.093037 0.00526596 -0 1 -0
0.261475 0.093037 0.00526596 0 1 0
0.243211 0.093037 0.00526596 -4.89556e-020 1 -8.72933e-017
0.224947 0.093037 0.00526596 -5.95899e-017 1 6.7836e-017
0.206684 0.093037 0.00526596 5.73866e-017 1 4.79147e-017
0.18842 0.093037 0.00526596 -0 1 -0
0.170157 0.093037 0.00526596 -4.28906e-017 1 4.79328e-017
0.151894 0.093037 0.00526596 -3.89177e-017 1 6.52879e-017
0.13363 0.093037 0.00526596 -1.37924e-016 1 1.0244e-016
0.115366 0.093037 0.00526596 -1.81849e-016 1 3.39396e-017
0.0971035 0.093037 0.00526596 5.73868e-017 1 4.79147e-017
0.0788397 0.093037 0.00526596 2.42169e-017 1 -3.85863e-017
0.0605758 0.093037 0.00526596 -3.48895e-017 1 4.79269e-017
0.042312 0.093037 0.00526596 2.4091e-019 1 2.93941e-017
0.0240492 0.093037 0.00526596 4.81821e-019 1 -5.9122e-017
0.00578541 0.093037 0.00526596 0 1 0
-0.0124784 0.093037 0.00526596 2.4091e-019 1 2.95867e-017
-0.0307412 0.093037 0.00526596 2.4091e-019 1 -2.97536e-017
-0.049005 0.093037 0.00526596 -4.84388e-017 1 -3.85828e-017
-0.0672688 0.093037 0.00526596 4.8439e-017 1 -3.85828e-017
-0.0855327 0.093037 0.00526596 3.27071e-018 1 -3.72742e-017
-0.103795 0.093037 0.00526596 1.32505e-017 1 4.79339e-017
-0.122059 0.093037 0.00526596 -0 1 1.11683e-016
-0.140323 0.093037 0.00526596 -3.83691e-017 1 4.79193e-017
-0.158586 0.093037 0.00526596 -1.56671e-017 1 4.79388e-017
-0.17685 0.093037 0.00526596 4.81211e-017 1 -4.80385e-017
-0.195113 0.093037 0.00526596 1.25531e-016 1 -3.37823e-018
-0.213376 0.093037 0.00526596 -0 1 -0
-0.23164 0.093037 0.00526596 -4.86935e-017 1 -2.91226e-017
-0.249904 0.093037 0.00526596 -7.5618e-018 1 7.43587e-017
-0.268168 0.093037 0.00526596 -1.24656e-016 1 -1.00319e-017
-0.286431 0.093037 0.00526596 -0.00484487 0.999988 -1.49831e-008
-0.304694 0.093037 0.00526596 -0.0409228 0.999162 -6.26441e-005
-0.322958 0.0923613 0.00526596 -0.137898 0.990446 -0.00121935
-0.340545 0.0896554 0.0045892 -0.335726 0.941949 -0.00451304
0.378498 0.0713905 0.0147363 0.894413 0.44724 0.00139614
-0.356103 0.08289 0.00188324 -0.63275 0.774346 -0.00390884
-0.366927 0.0713905 -0.00420434 -0.894413 0.44724 -0.00139594
0.382556 0.0565083 0.00526596 1 -6.30032e-006 4.69844e-007
-0.370985 0.0565083 0.00526596 -1 -6.34387e-006 -3.58334e-007
0.378498 0.0416271 -0.00420434 0.894418 -0.44723 -0.0013942
-0.366927 0.0416271 0.0147363 -0.894418 -0.44723 0.00139427
0.367674 0.0301266 0.00188324 0.632735 -0.774358 -0.00390947
0.352116 0.0233622 0.0045892 0.335727 -0.941949 -0.00451574
0.334529 0.0206563 0.00526596 0.137905 -0.990445 -0.00122059
0.316265 0.0199795 0.00526596 0.0409403 -0.999162 -6.26024e-005
0.298001 0.0199795 0.00526596 0.00485268 -0.999988 -1.50073e-008
0.279739 0.0199795 0.00526596 -8.05668e-018 -1 3.52373e-018
0.261475 0.0199795 0.00526596 -2.44778e-020 -1 4.36466e-017
0.243211 0.0199795 0.00526596 -2.44778e-020 -1 -4.36466e-017
0.224947 0.0199795 0.00526596 1.44517e-018 -1 -3.89234e-018
0.206684 0.0199795 0.00526596 -1.19834e-017 -1 2.37471e-021
0.18842 0.0199795 0.00526596 -8.71688e-020 -1 2.86847e-018
0.170157 0.0199795 0.00526596 -5.84875e-018 -1 -1.51739e-018
0.151894 0.0199795 0.00526596 -1.0204e-018 -1 -1.91027e-017
0.13363 0.0199795 0.00526596 -1.87327e-018 -1 2.55667e-018
0.115366 0.0199795 0.00526596 -8.05669e-018 -1 -3.70351e-018
0.0971035 0.0199795 0.00526596 9.30948e-018 -1 4.55492e-021
0.0788397 0.0199795 0.00526596 4.66069e-017 -1 2.55718e-018
0.0605758 0.0199795 0.00526596 -3.09392e-018 -1 -1.51485e-018
0.042312 0.0199795 0.00526596 1.20455e-019 -1 1.4697e-017
0.0240492 0.0199795 0.00526596 6.02276e-020 -1 -7.39025e-018
0.00578541 0.0199795 0.00526596 -3.05558e-033 -1 2.44907e-018
-0.0124784 0.0199795 0.00526596 -9.03414e-020 -1 -1.1095e-017
-0.0307412 0.0199795 0.00526596 -6.02276e-020 -1 7.43841e-018
-0.049005 0.0199795 0.00526596 -1.81002e-017 -1 -1.85912e-018
-0.0672688 0.0199795 0.00526596 0 -1 0
-0.0855327 0.0199795 0.00526596 8.05669e-018 -1 6.04059e-018
-0.103795 0.0199795 0.00526596 8.50373e-018 -1 -1.51651e-018
-0.122059 0.0199795 0.00526596 0 -1 -4.32471e-018
-0.140323 0.0199795 0.00526596 -1.04019e-017 -1 -1.51169e-018
-0.158586 0.0199795 0.00526596 6.28006e-018 -1 -3.64239e-021
-0.17685 0.0199795 0.00526596 -1.20303e-017 -1 2.86838e-018
-0.195113 0.0199795 0.00526596 8.05668e-018 -1 3.26691e-018
-0.213376 0.0199795 0.00526596 1.76263e-018 -1 1.93854e-017
-0.23164 0.0199795 0.00526596 -2.23258e-017 -1 9.95454e-018
-0.249904 0.0199795 0.00526596 -1.02807e-017 -1 -2.04933e-018
-0.268168 0.0199795 0.00526596 1.76263e-018 -1 -2.10804e-017
-0.286431 0.0199795 0.00526596 -0.00485268 -0.999988 -1.50072e-008
-0.304694 0.0199795 0.00526596 -0.0409404 -0.999162 6.28186e-005
-0.322958 0.0206563 0.00526596 -0.138027 -0.990404 0.00692864
-0.340545 0.0233622 0.00594272 -0.335727 -0.941949 0.00451599
-0.356103 0.0301266 0.00864758 -0.632737 -0.774357 0.00390968
0.367674 0.08289 -0.00961516 0.632749 0.774347 0.00390881
0.352116 0.0896554 -0.0123211 0.335726 0.941949 0.00451297
0.334529 0.0923613 -0.0129979 0.137898 0.990446 0.00121938
0.316265 0.093037 -0.0129979 0.0409227 0.999162 6.26449e-005
0.298001 0.093037 -0.0129979 0.00484487 0.999988 1.48944e-008
0.279739 0.093037 -0.0129979 0 1 0
0.261475 0.093037 -0.0129979 1.24272e-017 1 -4.18697e-017
0.243211 0.093037 -0.0129979 -4.95036e-020 1 8.72921e-017
0.224947 0.093037 -0.0129979 9.78659e-017 1 -2.6551e-017
0.206684 0.093037 -0.0129979 4.79329e-017 1 -1.20998e-017
0.18842 0.093037 -0.0129979 9.69421e-017 1 -2.1396e-017
0.170157 0.093037 -0.0129979 -3.34369e-017 1 -1.21179e-017
0.151894 0.093037 -0.0129979 -5.51787e-017 1 -8.04575e-017
0.13363 0.093037 -0.0129979 -1.37924e-016 1 2.83585e-017
0.115366 0.093037 -0.0129979 -1.52322e-016 1 -1.98972e-017
0.0971035 0.093037 -0.0129979 4.79331e-017 1 -1.20998e-017
0.0788397 0.093037 -0.0129979 -0 1 -0
0.0605758 0.093037 -0.0129979 -2.54365e-017 1 -2.97089e-021
0.042312 0.093037 -0.0129979 -1.31526e-017 1 -1.21079e-017
0.0240492 0.093037 -0.0129979 6.82197e-017 1 -1.21098e-017
0.00578541 0.093037 -0.0129979 -0 1 -0
-0.0124784 0.093037 -0.0129979 -1.2256e-016 1 -1.21078e-017
-0.0307412 0.093037 -0.0129979 -1.22562e-016 1 -1.21107e-017
-0.049005 0.093037 -0.0129979 5.03663e-018 1 2.17562e-016
-0.0672688 0.093037 -0.0129979 -1.284e-016 1 4.62332e-021
-0.0855327 0.093037 -0.0129979 -0 1 -0
-0.103795 0.093037 -0.0129979 3.79682e-018 1 -1.21189e-017
-0.122059 0.093037 -0.0129979 4.38932e-033 1 1.15975e-017
-0.140323 0.093037 -0.0129979 -2.89154e-017 1 -1.21043e-017
-0.158586 0.093037 -0.0129979 -4.41414e-017 1 -1.21284e-017
-0.17685 0.093037 -0.0129979 4.81211e-017 1 -1.19428e-017
-0.195113 0.093037 -0.0129979 1.49604e-016 1 2.62088e-017
-0.213376 0.093037 -0.0129979 0 1 0
-0.23164 0.093037 -0.0129979 -4.95036e-020 1 -8.72763e-017
-0.249904 0.093037 -0.0129979 1.24272e-017 1 4.18382e-017
-0.268168 0.093037 -0.0129979 -1.08395e-016 1 -5.13787e-018
-0.286431 0.093037 -0.0129979 -0.00484487 0.999988 1.48944e-008
-0.304694 0.093037 -0.0129979 -0.0409228 0.999162 -6.28588e-005
-0.322958 0.0923613 -0.0129979 -0.13802 0.990405 -0.0069324
-0.340545 0.0896554 -0.0136746 -0.335726 0.941949 -0.00451321
0.378498 0.0713905 -0.00352758 0.894413 0.44724 0.00139601
-0.356103 0.08289 -0.0163795 -0.63275 0.774346 -0.00390901
-0.366927 0.0713905 -0.0224682 -0.894413 0.44724 -0.00139607
0.382556 0.0565083 -0.0129979 1 -6.34396e-006 3.58792e-007
-0.370985 0.0565083 -0.0129979 -1 -6.30024e-006 -4.69383e-007
0.378498 0.0416271 -0.0224682 0.894418 -0.44723 -0.00139434
-0.366927 0.0416271 -0.00352758 -0.894418 -0.44723 0.00139413
0.367674 0.0301266 -0.0163795 0.632736 -0.774358 -0.00390965
0.352116 0.0233622 -0.0136746 0.335727 -0.941949 -0.00451592
0.334529 0.0206563 -0.0129979 0.138027 -0.990404 -0.00692868
0.316265 0.0199795 -0.0129979 0.0409403 -0.999162 -6.28169e-005
0.298001 0.0199795 -0.0129979 0.00485268 -0.999988 1.49184e-008
0.279739 0.0199795 -0.0129979 6.80078e-018 -1 1.739e-018
0.261475 0.0199795 -0.0129979 -1.23759e-020 -1 -2.1823e-017
0.243211 0.0199795 -0.0129979 3.1068e-018 -1 1.04674e-017
0.224947 0.0199795 -0.0129979 1.46139e-018 -1 6.84121e-018
0.206684 0.0199795 -0.0129979 -2.53015e-018 -1 4.53903e-018
0.18842 0.0199795 -0.0129979 -8.7172e-020 -1 1.08066e-017
0.170157 0.0199795 -0.0129979 -5.84875e-018 -1 1.51738e-018
0.151894 0.0199795 -0.0129979 -1.00689e-018 -1 1.66452e-017
0.13363 0.0199795 -0.0129979 -1.87327e-018 -1 1.24386e-017
0.115366 0.0199795 -0.0129979 6.80078e-018 -1 -1.55923e-018
0.0971035 0.0199795 -0.0129979 1.87626e-017 -1 1.50953e-018
0.0788397 0.0199795 -0.0129979 1.25916e-018 -1 5.43891e-017
0.0605758 0.0199795 -0.0129979 6.35897e-018 -1 3.02806e-018
0.042312 0.0199795 -0.0129979 -1.27414e-017 -1 1.51444e-018
0.0240492 0.0199795 -0.0129979 2.65082e-017 -1 1.51396e-018
0.00578541 0.0199795 -0.0129979 0 -1 -2.19835e-017
-0.0124784 0.0199795 -0.0129979 2.11871e-017 -1 1.51372e-018
-0.0307412 0.0199795 -0.0129979 -4.31371e-018 -1 1.51457e-018
-0.049005 0.0199795 -0.0129979 -4.38751e-018 -1 1.28684e-017
-0.0672688 0.0199795 -0.0129979 -0 -1 -0
-0.0855327 0.0199795 -0.0129979 -1.21807e-019 -1 1.45669e-017
-0.103795 0.0199795 -0.0129979 8.50373e-018 -1 1.5165e-018
-0.122059 0.0199795 -0.0129979 4.38932e-033 -1 -2.19835e-017
-0.140323 0.0199795 -0.0129979 -1.04019e-017 -1 1.51168e-018
-0.158586 0.0199795 -0.0129979 1.57333e-017 -1 4.54505e-018
-0.17685 0.0199795 -0.0129979 -1.20303e-017 -1 1.08067e-017
-0.195113 0.0199795 -0.0129979 -6.80078e-018 -1 1.99582e-018
-0.213376 0.0199795 -0.0129979 1.75181e-018 -1 -1.74194e-017
-0.23164 0.0199795 -0.0129979 -3.10679e-018 -1 1.04596e-017
-0.249904 0.0199795 -0.0129979 -3.1068e-018 -1 -1.04596e-017
-0.268168 0.0199795 -0.0129979 -6.80078e-018 -1 1.98067e-019
-0.286431 0.0199795 -0.0129979 -0.00485268 -0.999988 1.49184e-008
-0.304694 0.0199795 -0.0129979 -0.0409404 -0.999162 6.2604e-005
-0.322958 0.0206563 -0.0129979 -0.137905 -0.990445 0.00122056
-0.340545 0.0233622 -0.0123211 -0.335726 -0.941949 0.00451581
-0.356103 0.0301266 -0.00961516 -0.632737 -0.774357 0.0039095
0.367674 0.08289 -0.027879 0.632749 0.774347 0.0039089
0.352116 0.0896554 -0.030585 0.335726 0.941949 0.00451237
0.334529 0.0923613 -0.0312617 0.137898 0.990446 0.00121937
0.316265 0.093037 -0.0312617 0.0409227 0.999162 6.25272e-005
0.298001 0.093037 -0.0312617 0.00484487 0.999988 9.35102e-009
0.279739 0.093037 -0.0312617 0 1 0
0.261475 0.093037 -0.0312617 -1.6224e-017 1 6.83601e-017
0.243211 0.093037 -0.0312617 -6.77876e-018 1 1.43937e-016
0.224947 0.093037 -0.0312617 -1.72286e-017 1 1.39819e-016
0.206684 0.093037 -0.0312617 -1.72286e-017 1 -1.39815e-016
0.18842 0.093037 -0.0312617 9.69421e-017 1 1.62097e-022
0.170157 0.093037 -0.0312617 4.48662e-021 1 -5.15263e-017
0.151894 0.093037 -0.0312617 4.48656e-021 1 5.15365e-017
0.13363 0.093037 -0.0312617 4.84725e-017 1 4.21634e-023
0.115366 0.093037 -0.0312617 -1.72286e-017 1 1.39811e-016
0.0971035 0.093037 -0.0312617 -1.72286e-017 1 -1.39819e-016
0.0788397 0.093037 -0.0312617 -7.24125e-017 1 -9.44987e-018
0.0605758 0.093037 -0.0312617 4.4865e-021 1 -5.12971e-017
0.042312 0.093037 -0.0312617 2.50012e-018 1 4.839e-017
0.0240492 0.093037 -0.0312617 2.50012e-018 1 -4.839e-017
0.00578541 0.093037 -0.0312617 -0 1 -0
-0.0124784 0.093037 -0.0312617 -1.31582e-017 1 9.58541e-017
-0.0307412 0.093037 -0.0312617 1.31554e-017 1 -3.13346e-017
-0.049005 0.093037 -0.0312617 -4.84373e-017 1 -2.34984e-021
-0.0672688 0.093037 -0.0312617 1.56269e-019 1 -6.21209e-017
-0.0855327 0.093037 -0.0312617 -0 1 -0
-0.103795 0.093037 -0.0312617 -4.4866e-021 1 -5.15263e-017
-0.122059 0.093037 -0.0312617 -0 1 -7.44155e-017
-0.140323 0.093037 -0.0312617 -4.48661e-021 1 5.15283e-017
-0.158586 0.093037 -0.0312617 -4.09352e-018 1 -2.3119e-017
-0.17685 0.093037 -0.0312617 4.81208e-017 1 9.45342e-018
-0.195113 0.093037 -0.0312617 1.72286e-017 1 -1.39819e-016
-0.213376 0.093037 -0.0312617 0 1 0
-0.23164 0.093037 -0.0312617 -4.86922e-017 1 -9.46264e-018
-0.249904 0.093037 -0.0312617 -7.56233e-018 1 -3.77939e-017
-0.268168 0.093037 -0.0312617 1.72286e-017 1 -1.39823e-016
-0.286431 0.093037 -0.0312617 -0.00484487 0.999988 9.351e-009
-0.304694 0.093037 -0.0312617 -0.0409228 0.999162 -6.29172e-005
-0.322958 0.0923613 -0.0312617 -0.13802 0.990405 -0.00693243
-0.340545 0.0896554 -0.0319374 -0.335725 0.941949 -0.00451277
0.378498 0.0713905 -0.0217914 0.894413 0.44724 0.00139599
-0.356103 0.08289 -0.0346433 -0.63275 0.774346 -0.003909
-0.366927 0.0713905 -0.0407309 -0.894413 0.44724 -0.00139591
0.382556 0.0565083 -0.0312617 1 -6.29418e-006 2.9972e-007
-0.370985 0.0565083 -0.0312617 -1 -6.35002e-006 -5.2846e-007
0.378498 0.0416271 -0.0407309 0.894418 -0.44723 -0.00139418
-0.366927 0.0416271 -0.0217914 -0.894418 -0.44723 0.00139412
0.367674 0.0301266 -0.0346433 0.632736 -0.774358 -0.00390963
0.352116 0.0233622 -0.0319374 0.335727 -0.941949 -0.00451548
0.334529 0.0206563 -0.0312617 0.138027 -0.990404 -0.00692872
0.316265 0.0199795 -0.0312617 0.0409403 -0.999162 -6.28753e-005
0.298001 0.0199795 -0.0312617 0.00485268 -0.999988 9.36609e-009
0.279739 0.0199795 -0.0312617 4.30716e-018 -1 3.49538e-017
0.261475 0.0199795 -0.0312617 4.68713e-019 -1 -4.91364e-018
0.243211 0.0199795 -0.0312617 4.68713e-019 -1 4.91364e-018
0.224947 0.0199795 -0.0312617 4.30267e-018 -1 1.65714e-017
0.206684 0.0199795 -0.0312617 4.30716e-018 -1 3.49538e-017
0.18842 0.0199795 -0.0312617 -2.42355e-017 -1 -9.64471e-018
0.170157 0.0199795 -0.0312617 4.30716e-018 -1 -3.49548e-017
0.151894 0.0199795 -0.0312617 -3.68918e-018 -1 1.49022e-017
0.13363 0.0199795 -0.0312617 -1.22064e-017 -1 -1.20081e-017
0.115366 0.0199795 -0.0312617 -1.02338e-018 -1 5.77515e-018
0.0971035 0.0199795 -0.0312617 -3.68917e-018 -1 1.49124e-017
0.0788397 0.0199795 -0.0312617 -2.42176e-017 -1 3.93932e-018
0.0605758 0.0199795 -0.0312617 3.28876e-018 -1 7.80478e-018
0.042312 0.0199795 -0.0312617 -4.31025e-018 -1 2.28883e-017
0.0240492 0.0199795 -0.0312617 3.28885e-018 -1 -7.8339e-018
0.00578541 0.0199795 -0.0312617 -0 -1 -0
-0.0124784 0.0199795 -0.0312617 -1.01959e-018 -1 -1.39578e-017
-0.0307412 0.0199795 -0.0312617 -3.28885e-018 -1 7.83365e-018
-0.049005 0.0199795 -0.0312617 1.21102e-017 -1 3.94109e-018
-0.0672688 0.0199795 -0.0312617 -6.92783e-018 -1 1.46085e-017
-0.0855327 0.0199795 -0.0312617 1.12164e-021 -1 -1.28826e-017
-0.103795 0.0199795 -0.0312617 1.02338e-018 -1 5.77209e-018
-0.122059 0.0199795 -0.0312617 0 -1 -5.13628e-018
-0.140323 0.0199795 -0.0312617 -4.30716e-018 -1 3.49538e-017
-0.158586 0.0199795 -0.0312617 1.02338e-018 -1 5.77976e-018
-0.17685 0.0199795 -0.0312617 -1.20302e-017 -1 -1.2008e-017
-0.195113 0.0199795 -0.0312617 -4.30716e-018 -1 3.49548e-017
-0.213376 0.0199795 -0.0312617 3.68917e-018 -1 -1.49083e-017
-0.23164 0.0199795 -0.0312617 1.21739e-017 -1 6.30616e-018
-0.249904 0.0199795 -0.0312617 1.39383e-017 -1 1.10268e-017
-0.268168 0.0199795 -0.0312617 3.68917e-018 -1 1.49145e-017
-0.286431 0.0199795 -0.0312617 -0.00485268 -0.999988 9.36607e-009
-0.304694 0.0199795 -0.0312617 -0.0409404 -0.999162 6.24863e-005
-0.322958 0.0206563 -0.0312617 -0.137905 -0.990445 0.00122056
-0.340545 0.0233622 -0.030585 -0.335726 -0.941949 0.00451521
-0.356103 0.0301266 -0.027879 -0.632737 -0.774357 0.00390959
0.397759 0.89023 -0.081884 0.265341 0.533625 0.803018
0.384037 0.888948 -0.0814962 -0.0599557 0.50774 0.859422
-0.383474 0.890857 -0.085106 -0.0462252 0.566956 0.82245
-0.395392 0.888868 -0.0872514 -0.52301 0.533188 0.664959
0.386604 0.87657 -0.0765634 0.00286183 0.286183 0.958171
0.370031 0.876908 -0.0824152 -0.38073 0.310513 0.870992
-0.394145 0.876026 -0.0826542 -0.437336 0.311802 0.843515
0.388068 0.859901 -0.0749915 0.0367733 0.113783 0.992825
0.370683 0.859901 -0.0796082 -0.368031 0.119035 0.922163
-0.37015 0.858712 -0.0788609 0.241817 0.157877 0.957392
-0.383239 0.855163 -0.0754401 -0.157377 0.116427 0.980651
-0.393843 0.85861 -0.080096 -0.407918 0.131195 0.903544
0.388643 0.84184 -0.0745516 0.0590908 0.027836 0.997864
0.371056 0.84184 -0.0786947 -0.310353 0.0357104 0.94995
-0.380903 0.840869 -0.0746341 -0.0862399 0.0578982 0.994591
-0.394009 0.840869 -0.0788609 -0.429264 0.0457115 0.902021
0.388643 0.823576 -0.0745516 0.0629878 0.00507239 0.998001
0.371056 0.823576 -0.0786099 -0.304513 0.00810837 0.952474
-0.380048 0.823475 -0.0745516 -0.060965 0.0120009 0.998068
-0.393594 0.823373 -0.0786099 -0.428359 0.00906176 0.903563
0.388643 0.805312 -0.0745516 0.0651434 -0.0021593 0.997874
0.371056 0.805312 -0.0786099 -0.303323 0.000145232 0.952888
-0.379778 0.805312 -0.0745516 -0.0507185 -0.00299892 0.998708
-0.393306 0.805312 -0.0786099 -0.421945 -0.0019965 0.906619
0.388643 0.78705 -0.0745516 0.0954678 -0.0151589 0.995317
0.371056 0.78705 -0.0786099 -0.300821 -0.0074872 0.953651
-0.379778 0.78705 -0.0745516 -0.0518282 -0.0233994 0.998382
-0.393306 0.78705 -0.0786099 -0.418366 -0.00875548 0.908236
0.389155 0.76867 -0.0746482 0.0962802 -0.0407181 0.994521
0.37137 0.768641 -0.0786099 -0.287264 -0.0275779 0.957454
-0.379778 0.768786 -0.0748046 -0.05754 -0.0414517 0.997482
-0.393306 0.768786 -0.0786099 -0.405057 -0.0320571 0.913729
0.390675 0.750671 -0.0752902 0.210236 -0.107127 0.971764
0.372946 0.75002 -0.0785991 -0.281168 -0.0889693 0.955525
-0.378882 0.75087 -0.0757258 0.0151885 -0.093177 0.995534
-0.392969 0.750522 -0.0788641 -0.397356 -0.0773761 0.914397
0.392748 0.736347 -0.0762581 0.227118 -0.191135 0.954927
-0.391074 0.732558 -0.0797886 -0.327945 -0.147088 0.933176
0.367674 0.08289 -0.0461428 0.632749 0.774347 0.00390899
0.352116 0.0896554 -0.0488488 0.335726 0.941949 0.00451258
0.334529 0.0923613 -0.0495245 0.13802 0.990405 0.00693259
0.316265 0.093037 -0.0495245 0.0409227 0.999162 6.2915e-005
0.298001 0.093037 -0.0495245 0.00484487 0.999988 -9.25222e-009
0.279739 0.093037 -0.0495245 -0 1 -0
0.261475 0.093037 -0.0495245 -0 1 -0
0.243211 0.093037 -0.0495245 3.54814e-017 1 2.81511e-018
0.224947 0.093037 -0.0495245 4.08812e-018 1 -2.84337e-017
0.206684 0.093037 -0.0495245 4.08813e-018 1 2.84296e-017
0.18842 0.093037 -0.0495245 -0 1 -0
0.170157 0.093037 -0.0495245 4.0374e-021 1 5.15284e-017
0.151894 0.093037 -0.0495245 4.03734e-021 1 -5.15406e-017
0.13363 0.093037 -0.0495245 -1.37925e-016 1 -2.83586e-017
0.115366 0.093037 -0.0495245 4.03736e-021 1 5.15325e-017
0.0971035 0.093037 -0.0495245 4.08812e-018 1 2.84337e-017
0.0788397 0.093037 -0.0495245 2.42185e-017 1 -1.17733e-021
0.0605758 0.093037 -0.0495245 -1.31553e-017 1 3.12202e-017
0.042312 0.093037 -0.0495245 -2.50002e-018 1 4.83894e-017
0.0240492 0.093037 -0.0495245 -0 1 -0
0.00578541 0.093037 -0.0495245 0 1 0
-0.0124784 0.093037 -0.0495245 -2.50002e-018 1 4.83894e-017
-0.0307412 0.093037 -0.0495245 -2.50002e-018 1 -4.83894e-017
-0.049005 0.093037 -0.0495245 -4.84373e-017 1 2.35108e-021
-0.0672688 0.093037 -0.0495245 4.84375e-017 1 2.3738e-021
-0.0855327 0.093037 -0.0495245 -4.03736e-021 1 -5.15345e-017
-0.103795 0.093037 -0.0495245 -4.03738e-021 1 5.15284e-017
-0.122059 0.093037 -0.0495245 -0 1 -2.77556e-017
-0.140323 0.093037 -0.0495245 -4.0374e-021 1 -5.15304e-017
-0.158586 0.093037 -0.0495245 1.72255e-017 1 -8.82562e-017
-0.17685 0.093037 -0.0495245 4.81208e-017 1 -9.45343e-018
-0.195113 0.093037 -0.0495245 -4.08812e-018 1 2.84337e-017
-0.213376 0.093037 -0.0495245 -0 1 -0
-0.23164 0.093037 -0.0495245 -4.86922e-017 1 9.46264e-018
-0.249904 0.093037 -0.0495245 -5.57568e-017 1 2.83451e-017
-0.268168 0.093037 -0.0495245 -4.08813e-018 1 2.84378e-017
-0.286431 0.093037 -0.0495245 -0.00484487 0.999988 -9.25219e-009
-0.304694 0.093037 -0.0495245 -0.0409228 0.999162 -6.25294e-005
-0.322958 0.0923613 -0.0495245 -0.137898 0.990446 -0.00121933
-0.340545 0.0896554 -0.0502012 -0.335726 0.941949 -0.00451304
0.378498 0.0713905 -0.0400552 0.894413 0.44724 0.00139603
-0.356103 0.08289 -0.0529072 -0.632736 0.774359 -0.00362458
-0.366927 0.0713905 -0.0589948 -0.894194 0.44768 0.000240403
0.382556 0.0565083 -0.0495245 1 -6.22665e-006 5.43597e-007
-0.370985 0.0565083 -0.0495245 -1 4.63585e-005 0.000478326
0.378498 0.0416271 -0.0589948 0.894418 -0.44723 -0.00139414
-0.366927 0.0416271 -0.0400552 -0.894406 -0.447253 0.00163352
0.367674 0.0301266 -0.0529072 0.632735 -0.774358 -0.00390944
0.352116 0.0233622 -0.0502012 0.335727 -0.941949 -0.00451575
0.334529 0.0206563 -0.0495245 0.137905 -0.990445 -0.00122058
0.316265 0.0199795 -0.0495245 0.0409403 -0.999162 -6.24877e-005
0.298001 0.0199795 -0.0495245 0.00485268 -0.999988 -9.26712e-009
0.279739 0.0199795 -0.0495245 -1.02203e-018 -1 -7.1074e-018
0.261475 0.0199795 -0.0495245 -1.07026e-017 -1 5.37646e-018
0.243211 0.0199795 -0.0495245 5.1764e-019 -1 -9.37276e-018
0.224947 0.0199795 -0.0495245 -3.69073e-018 -1 -1.08539e-017
0.206684 0.0199795 -0.0495245 -1.02203e-018 -1 -7.1074e-018
0.18842 0.0199795 -0.0495245 -8.72238e-020 -1 5.15255e-017
0.170157 0.0199795 -0.0495245 -1.02203e-018 -1 7.10843e-018
0.151894 0.0199795 -0.0495245 4.30538e-018 -1 -9.17734e-018
0.13363 0.0199795 -0.0495245 -1.87319e-018 -1 4.20723e-017
0.115366 0.0199795 -0.0495245 -1.02203e-018 -1 7.10638e-018
0.0971035 0.0199795 -0.0495245 4.30638e-018 -1 -2.20717e-017
0.0788397 0.0199795 -0.0495245 4.66056e-017 -1 4.20728e-017
0.0605758 0.0199795 -0.0495245 3.28882e-018 -1 -7.80505e-018
0.042312 0.0199795 -0.0495245 3.28891e-018 -1 -7.83417e-018
