ply
format ascii 1.0
element vertex 813
property float x
property float y
property float z
property float nx
property float ny
property float nz
end_header
0.271325 -0.35318 -0.162549 -0.979548 0.201209 2.87557e-007
-0.278378 -0.35318 -0.162549 0.979553 0.201185 2.93456e-007
-0.355545 -0.35318 -0.162549 -0.979569 0.201106 2.7795e-007
0.348501 -0.35318 -0.17949 0.979546 0.201219 -6.19112e-009
0.271325 -0.35318 -0.17949 -0.979548 0.201209 -6.14573e-009
-0.278378 -0.35318 -0.17949 0.979553 0.201185 -6.28384e-009
-0.355545 -0.35318 -0.17949 -0.979569 0.201106 -5.92268e-009
0.348501 -0.35318 -0.196432 0.979546 0.201219 -1.63452e-007
0.271325 -0.35318 -0.196432 -0.979548 0.201209 -1.62254e-007
-0.278378 -0.35318 -0.196432 0.979553 0.201185 -1.659e-007
-0.355545 -0.35318 -0.196432 -0.979569 0.201106 -1.56365e-007
0.348501 -0.35318 -0.213376 0.979546 0.201219 4.97622e-008
0.271325 -0.35318 -0.213376 -0.979548 0.201209 4.92235e-008
-0.278378 -0.35318 -0.213376 0.979553 0.201185 5.08929e-008
-0.355545 -0.35318 -0.213376 -0.979569 0.201106 4.66077e-008
0.348501 -0.35318 -0.230317 0.979546 0.201219 -5.38341e-008
0.271325 -0.35318 -0.230317 -0.979548 0.201209 -5.32643e-008
-0.278378 -0.35318 -0.230317 0.979553 0.201185 -5.50287e-008
-0.355545 -0.35318 -0.230317 -0.979569 0.201106 -5.04957e-008
0.348501 -0.35318 -0.247261 0.979546 0.201219 1.73715e-007
0.271325 -0.35318 -0.247261 -0.979548 0.201209 1.7244e-007
-0.278378 -0.35318 -0.247261 0.979553 0.201185 1.76319e-007
-0.355545 -0.35318 -0.247261 -0.979569 0.201106 1.66175e-007
0.348501 -0.35318 -0.264202 0.979546 0.201219 -1.23822e-009
0.271325 -0.35318 -0.264202 -0.979548 0.201209 -1.22915e-009
-0.278378 -0.35318 -0.264202 0.979553 0.201185 -1.25676e-009
-0.355545 -0.35318 -0.264202 -0.979569 0.201106 -1.18453e-009
0.348501 -0.35318 -0.281144 0.979546 0.201219 -1.7424e-007
0.271325 -0.35318 -0.281144 -0.979548 0.201209 -1.72963e-007
-0.278378 -0.35318 -0.281144 0.979553 0.201185 -1.76846e-007
-0.355545 -0.35318 -0.281144 -0.979569 0.201106 -1.66692e-007
0.348501 -0.35318 -0.298087 0.979546 0.201219 1.75121e-007
0.271325 -0.35318 -0.298087 -0.979548 0.201209 1.7384e-007
-0.278378 -0.35318 -0.298087 0.979553 0.201185 1.77738e-007
-0.355545 -0.35318 -0.298087 -0.979569 0.201106 1.67542e-007
0.348501 -0.35318 -0.315029 0.979546 0.201219 2.47645e-009
0.271325 -0.35318 -0.315029 -0.979548 0.201209 2.45829e-009
-0.278378 -0.35318 -0.315029 0.979553 0.201185 2.51353e-009
-0.355545 -0.35318 -0.315029 -0.979569 0.201106 2.36907e-009
0.348501 -0.35318 -0.33197 0.979546 0.201219 -2.9746e-007
0.271325 -0.35318 -0.33197 -0.979548 0.201209 -2.95455e-007
-0.278378 -0.35318 -0.33197 0.979553 0.201185 -3.01523e-007
-0.355545 -0.35318 -0.33197 -0.979569 0.201106 -2.85573e-007
0.348501 -0.35318 -0.348914 0.979546 0.201219 7.13716e-010
0.271325 -0.35318 -0.348914 -0.979548 0.201209 7.05927e-010
-0.278378 -0.35318 -0.348914 0.979553 0.201185 7.30074e-010
-0.355545 -0.35318 -0.348914 -0.979569 0.201106 6.68113e-010
0.348501 -0.35318 -0.365858 0.979546 0.201219 2.92507e-007
0.271325 -0.35318 -0.365858 -0.979548 0.201209 2.90539e-007
-0.278378 -0.35318 -0.365858 0.979553 0.201185 2.96496e-007
-0.355545 -0.35318 -0.365858 -0.979569 0.201106 2.80835e-007
0.348501 -0.35318 -0.382799 0.979546 0.201219 -2.47645e-009
0.271325 -0.35318 -0.382799 -0.979548 0.201209 -2.45829e-009
-0.278378 -0.35318 -0.382799 0.979553 0.201185 -2.51353e-009
-0.355545 -0.35318 -0.382799 -0.979569 0.201106 -2.36907e-009
0.348501 -0.35318 -0.399741 0.979546 0.201219 -2.9003e-007
0.271325 -0.35318 -0.399741 -0.979548 0.201209 -2.8808e-007
-0.278378 -0.35318 -0.399741 0.979553 0.201185 -2.93982e-007
-0.355545 -0.35318 -0.399741 -0.979569 0.201106 -2.78466e-007
0.348501 -0.35318 -0.416684 0.979546 0.201219 1.76266e-009
0.271325 -0.35318 -0.416684 -0.979548 0.201209 1.7523e-009
-0.278378 -0.35318 -0.416684 0.979553 0.201185 1.78339e-009
-0.355545 -0.35318 -0.416684 -0.979569 0.201106 1.70089e-009
0.348501 -0.35318 -0.433628 0.979546 0.201219 1.70863e-007
0.271325 -0.35318 -0.433628 -0.979548 0.201209 1.69611e-007
-0.278378 -0.35318 -0.433628 0.979553 0.201185 1.73422e-007
-0.355545 -0.35318 -0.433628 -0.979569 0.201106 1.63455e-007
0.348501 -0.35318 -0.45057 0.979546 0.201219 -4.92379e-008
0.271325 -0.35318 -0.45057 -0.979548 0.201209 -4.87005e-008
-0.278378 -0.35318 -0.45057 0.979553 0.201185 -5.03665e-008
-0.355545 -0.35318 -0.45057 -0.979569 0.201106 -4.60915e-008
0.348501 -0.35318 -0.467513 0.979546 0.201219 1.70882e-007
0.271325 -0.35318 -0.467513 -0.979548 0.201209 1.69629e-007
-0.278378 -0.35318 -0.467513 0.979553 0.201185 1.73441e-007
-0.355545 -0.35318 -0.467513 -0.979569 0.201106 1.63472e-007
0.348501 -0.35318 -0.484455 0.979546 0.201219 -1.76298e-009
0.271325 -0.35318 -0.484455 -0.979548 0.201209 -1.75261e-009
-0.278378 -0.35318 -0.484455 0.979553 0.201185 -1.78371e-009
-0.355545 -0.35318 -0.484455 -0.979569 0.201106 -1.70119e-009
0.348501 -0.35318 -0.501396 0.979546 0.201219 -2.96746e-007
0.271325 -0.35318 -0.501396 -0.979548 0.201209 -2.94749e-007
-0.278378 -0.35318 -0.501396 0.979553 0.201185 -3.00793e-007
-0.355545 -0.35318 -0.501396 -0.979569 0.201106 -2.84905e-007
0.348501 -0.35318 -0.51834 0.979546 0.201219 -1.981e-016
0.271325 -0.35318 -0.51834 -0.979548 0.201209 -2.96407e-016
-0.278378 -0.35318 -0.51834 0.979553 0.201185 9.0158e-017
-0.355545 -0.35318 -0.51834 -0.979569 0.201106 -4.22366e-017
0.348501 -0.35318 -0.535284 0.979546 0.201219 2.96746e-007
0.271325 -0.35318 -0.535284 -0.979548 0.201209 2.94749e-007
-0.278378 -0.35318 -0.535284 0.979553 0.201185 3.00793e-007
-0.355545 -0.35318 -0.535284 -0.979569 0.201106 2.84905e-007
0.348501 -0.35318 -0.552225 0.979546 0.201219 1.26937e-007
0.271325 -0.35318 -0.552225 -0.979548 0.201209 1.2619e-007
-0.278378 -0.35318 -0.552225 0.979553 0.201185 1.28429e-007
-0.355545 -0.35318 -0.552225 -0.979569 0.201106 1.22488e-007
0.348501 -0.35318 -0.569167 0.979546 0.201219 -1.18458e-007
0.271325 -0.35318 -0.569167 -0.979548 0.201209 -1.17768e-007
-0.278378 -0.35318 -0.569167 0.979553 0.201185 -1.19835e-007
-0.355545 -0.35318 -0.569167 -0.979569 0.201106 -1.14347e-007
0.348501 -0.35318 -0.586108 0.979546 0.201219 -1.78312e-007
0.271325 -0.35318 -0.586108 -0.979548 0.201209 -1.77004e-007
-0.278378 -0.35318 -0.586108 0.979553 0.201185 -1.80982e-007
-0.355545 -0.35318 -0.586108 -0.979569 0.201106 -1.7058e-007
0.348501 -0.35318 -0.603052 0.979546 0.201219 4.6426e-008
0.271325 -0.35318 -0.603052 -0.979548 0.201209 4.59015e-008
-0.278378 -0.35318 -0.603052 0.979553 0.201185 4.75295e-008
-0.355545 -0.35318 -0.603052 -0.979569 0.201106 4.33575e-008
0.348501 -0.35318 -0.619993 0.979546 0.201219 -4.99514e-008
0.271325 -0.35318 -0.619993 -0.979548 0.201209 -4.94062e-008
-0.278378 -0.35318 -0.619993 0.979553 0.201185 -5.10963e-008
-0.355545 -0.35318 -0.619993 -0.979569 0.201106 -4.67594e-008
0.348501 -0.35318 -0.636937 0.979546 0.201219 7.81583e-008
0.271325 -0.35318 -0.636937 -0.979548 0.201209 7.74472e-008
-0.278378 -0.35318 -0.636937 0.979553 0.201185 7.96349e-008
-0.355545 -0.35318 -0.636937 -0.979569 0.201106 7.39778e-008
0.348501 -0.35318 -0.653879 0.979546 0.201219 -2.44302e-008
0.271325 -0.35318 -0.653879 -0.979548 0.201209 -2.40926e-008
-0.278378 -0.35318 -0.653879 0.979553 0.201185 -2.51476e-008
-0.355545 -0.35318 -0.653879 -0.979569 0.201106 -2.24621e-008
0.348501 -0.35318 -0.670822 0.979546 0.201219 5.39819e-008
0.271325 -0.35318 -0.670822 -0.979548 0.201209 5.34991e-008
-0.278378 -0.35318 -0.670822 0.979553 0.201185 5.4983e-008
-0.355545 -0.35318 -0.670822 -0.979569 0.201106 5.11428e-008
0.348501 -0.35318 -0.687763 0.979546 0.201219 -3.26555e-008
0.271325 -0.35318 -0.687763 -0.979548 0.201209 -3.237e-008
-0.278378 -0.35318 -0.687763 0.979553 0.201185 -3.32466e-008
-0.355545 -0.35318 -0.687763 -0.979569 0.201106 -3.09757e-008
0.348501 -0.35318 -0.704706 0.979546 0.201219 -1.00145e-007
0.271325 -0.35318 -0.704706 -0.979548 0.201209 -9.95488e-008
-0.278378 -0.35318 -0.704706 0.979553 0.201185 -1.01338e-007
-0.355545 -0.35318 -0.704706 -0.979569 0.201106 -9.65942e-008
0.348501 -0.35318 -0.721649 0.979546 0.201219 -1.85547e-008
0.271325 -0.35318 -0.721649 -0.979548 0.201209 -1.83522e-008
-0.278378 -0.35318 -0.721649 0.979553 0.201185 -1.89799e-008
-0.355545 -0.35318 -0.721649 -0.979569 0.201106 -1.7369e-008
0.348501 -0.35318 -0.738592 0.979546 0.201219 1.40778e-007
0.271325 -0.35318 -0.738592 -0.979548 0.201209 1.39756e-007
-0.278378 -0.35318 -0.738592 0.979553 0.201185 1.42863e-007
-0.355545 -0.35318 -0.738592 -0.979569 0.201106 1.34732e-007
0.348501 -0.35318 -0.755534 0.979546 0.201219 1.10808e-008
0.271325 -0.35318 -0.755534 -0.979548 0.201209 1.11018e-008
-0.278378 -0.35318 -0.755534 0.979553 0.201185 1.10199e-008
-0.355545 -0.35318 -0.755534 -0.979569 0.201106 1.11867e-008
0.348501 -0.35318 -0.772476 0.979813 0.199892 0.00302168
0.271325 -0.35318 -0.772476 -0.979548 0.201209 -2.44867e-008
-0.278378 -0.35318 -0.772476 0.979819 0.199862 0.00302596
-0.355545 -0.35318 -0.772476 -0.979525 0.201304 -0.00273267
0.348501 -0.35318 -0.789419 0.979962 0.199177 -0.00152784
0.271325 -0.35318 -0.789419 -0.97964 0.200737 -0.00321872
-0.278378 -0.35318 -0.789419 0.979965 0.199165 -0.0014711
-0.355545 -0.35318 -0.789419 -0.979398 0.201845 -0.00613279
0.348501 -0.35318 -0.806174 0.980982 0.192736 -0.0229803
0.271325 -0.35318 -0.806361 -0.979604 0.198893 -0.0285853
-0.278378 -0.35318 -0.806174 0.980985 0.192721 -0.0229478
-0.355545 -0.354038 -0.806267 -0.982172 0.183345 -0.041502
0.348073 -0.352316 -0.822403 0.976263 0.191826 -0.100561
0.271505 -0.354038 -0.82321 -0.981589 0.158613 -0.106421
-0.278808 -0.352316 -0.822403 0.976268 0.191876 -0.100419
-0.355365 -0.355753 -0.822471 -0.97984 0.141417 -0.141121
0.345669 -0.3506 -0.838117 0.934432 0.199478 -0.295034
0.2733 -0.356611 -0.839119 -0.950423 0.0921732 -0.296984
-0.281209 -0.3506 -0.838117 0.933755 0.199819 -0.296941
-0.354164 -0.359185 -0.835235 -0.957397 0.0518376 -0.284086
0.340597 -0.346309 -0.851547 0.767867 0.339946 -0.542971
0.278715 -0.361758 -0.852868 -0.815492 -0.039616 -0.577411
-0.286274 -0.346309 -0.851547 0.764002 0.341738 -0.547281
-0.346867 -0.359185 -0.850569 -0.836022 0.074232 -0.543651
0.332535 -0.351458 -0.861625 0.5846 0.192805 -0.788079
0.319052 -0.35318 -0.867416 0.22889 0.165001 -0.959366
0.303609 -0.354038 -0.867779 -0.166192 0.184661 -0.968649
0.289102 -0.356611 -0.862822 -0.543495 0.105498 -0.832757
-0.294507 -0.351458 -0.861535 0.581196 0.198616 -0.789153
-0.30824 -0.35318 -0.867309 0.193361 0.189465 -0.96266
-0.322755 -0.354896 -0.868395 -0.195847 0.187536 -0.962535
-0.335116 -0.356611 -0.863496 -0.489688 0.139984 -0.860587
0.434081 -0.337725 0.150895 0.579895 -0.0732628 0.81139
0.419403 -0.336009 0.15711 0.298876 -0.0501149 0.952975
0.403086 -0.336009 0.159041 0.112354 -0.0275877 0.993285
0.386185 -0.336009 0.159359 0.0271877 -0.00538581 0.999616
0.369188 -0.336009 0.159359 0.00331585 -0.00100052 0.999994
0.352269 -0.336009 0.159359 -9.86291e-018 4.4915e-017 1
0.335361 -0.336009 0.159359 -1.44299e-017 1.16764e-016 1
0.318374 -0.336009 0.159359 -0 0 1
0.301455 -0.336009 0.159359 4.47651e-017 -8.25803e-017 1
0.284468 -0.336009 0.159359 -3.51006e-017 -1.68768e-016 1
0.267557 -0.336009 0.159359 1.92205e-017 -4.42116e-017 1
0.250638 -0.336009 0.159359 0 -0 1
0.233651 -0.336009 0.159359 -0 0 1
0.216741 -0.336009 0.159359 -1.8732e-017 3.72245e-017 1
0.199832 -0.336009 0.159359 0 -0 1
0.182827 -0.336009 0.159359 -1.51038e-016 -1.08833e-016 1
0.165926 -0.336009 0.159359 1.26891e-017 4.20075e-017 1
0.148921 -0.336009 0.159359 -0 0 1
0.132011 -0.336009 0.159359 -1.30752e-016 -2.35393e-017 1
0.11511 -0.336009 0.159359 3.31014e-017 -5.96566e-017 1
0.0981054 -0.336009 0.159359 7.07608e-017 -3.40098e-018 1
0.0811953 -0.336009 0.159359 5.8729e-017 4.90197e-017 1
0.0642939 -0.336009 0.159359 0 -0 1
0.0472984 -0.336009 0.159359 -0 0 1
0.0303798 -0.336009 0.159359 0 -0 1
0.0133924 -0.336009 0.159359 -8.9516e-017 -3.20825e-017 1
-0.00351766 -0.336009 0.159359 -2.27791e-017 3.05051e-017 1
-0.0204363 -0.336009 0.159359 7.72352e-017 4.14529e-017 1
-0.0374232 -0.336009 0.159359 -0 0 1
-0.0543333 -0.336009 0.159359 0 -0 1
-0.0713379 -0.336009 0.159359 -3.47404e-017 -1.36121e-016 1
-0.0882392 -0.336009 0.159359 -5.89901e-017 -2.60428e-017 1
-0.105149 -0.336009 0.159359 3.18503e-017 5.85798e-017 1
-0.122153 -0.336009 0.159359 -0 0 1
-0.139063 -0.336009 0.159359 -5.80321e-017 4.91696e-017 1
-0.155965 -0.336009 0.159359 -3.44785e-017 8.86602e-017 1
-0.172969 -0.336009 0.159359 -2.36684e-017 1.59743e-017 1
-0.189879 -0.336009 0.159359 1.51194e-017 1.95024e-016 1
-0.206866 -0.336009 0.159359 -0 0 1
-0.223785 -0.336009 0.159359 -0 0 1
-0.240695 -0.336009 0.159359 4.58123e-017 1.69664e-016 1
-0.257682 -0.336009 0.159359 -0 0 1
-0.274593 -0.336009 0.159359 5.82511e-017 1.34915e-016 1
-0.291512 -0.336009 0.159359 -8.43031e-018 -1.02401e-016 1
-0.308499 -0.336009 0.159359 -6.18004e-018 -4.42555e-017 1
-0.325407 -0.336009 0.159359 0 -0 1
-0.342413 -0.336009 0.159359 -4.26429e-017 -4.19688e-018 1
-0.359313 -0.336009 0.159359 0 -0 1
-0.376224 -0.336009 0.159359 -3.52086e-017 -6.90759e-017 1
-0.393227 -0.336009 0.159359 -0.00707316 0.000454199 0.999975
-0.410129 -0.336009 0.159359 -0.0405147 0.000553007 0.999179
-0.42704 -0.336009 0.158733 -0.137461 0.00109198 0.990507
-0.443357 -0.335151 0.156217 -0.329633 0.00419659 0.9441
0.444803 -0.344593 0.139788 0.832846 -0.0675887 0.549363
-0.457856 -0.332578 0.149942 -0.598525 0.00303167 0.801098
-0.468507 -0.326565 0.139274 -0.833583 -0.000190264 0.552394
0.450648 -0.337725 0.12511 0.980334 -0.0778597 0.181335
-0.474173 -0.333435 0.124844 -0.980416 -0.000489619 0.196936
0.450648 -0.333435 0.109014 0.973991 -0.0849617 -0.210055
-0.474173 -0.338582 0.109153 -0.980399 -0.00201325 -0.197012
0.445413 -0.325707 0.0944062 0.818874 -0.105507 -0.564193
-0.468507 -0.345451 0.0947225 -0.833824 -0.00195019 -0.552028
0.434244 -0.33172 0.0838312 0.578098 -0.0550316 -0.81411
0.419566 -0.335151 0.0777355 0.338011 -0.0122407 -0.941063
0.403086 -0.336009 0.0749553 0.219141 0.021046 -0.975466
0.386349 -0.336009 0.0724479 0.294777 0.0766922 -0.952484
0.371069 -0.338582 0.0663357 0.503278 0.158452 -0.849473
0.248578 -0.332578 0.0658292 -0.476054 0.106911 -0.872893
0.233222 -0.335151 0.0715467 -0.277002 0.0209308 -0.960641
0.216741 -0.336009 0.0740107 -0.122292 -0.00362624 -0.992488
0.199832 -0.336009 0.074637 -0.0355783 0.00192245 -0.999365
0.182827 -0.336009 0.074637 -0.00663367 -0.000549711 -0.999978
0.165926 -0.336009 0.074637 -0 0 -1
0.148921 -0.336009 0.074637 -9.68343e-018 4.92204e-017 -1
0.132011 -0.336009 0.074637 -2.63117e-017 3.49627e-017 -1
0.11511 -0.336009 0.074637 7.67872e-019 -5.71856e-017 -1
0.0981054 -0.336009 0.074637 2.67273e-017 -2.07588e-017 -1
0.0811953 -0.336009 0.074637 -5.1728e-017 -4.74514e-017 -1
0.0642939 -0.336009 0.074637 -7.2184e-017 3.38272e-018 -1
0.0472984 -0.336009 0.074637 5.22609e-018 -1.05278e-017 -1
0.0303798 -0.336009 0.074637 -4.74998e-017 -1.02692e-017 -1
0.0133924 -0.336009 0.074637 8.46347e-018 -4.28134e-017 -1
-0.00351766 -0.336009 0.074637 1.769e-018 -7.64706e-018 -1
-0.0204363 -0.336009 0.074637 1.03971e-017 -7.64645e-017 -1
-0.0374232 -0.336009 0.074637 -3.76655e-017 -4.58482e-017 -1
-0.0543333 -0.336009 0.074637 2.61531e-018 3.23471e-017 -1
-0.0713379 -0.336009 0.074637 9.30782e-017 -2.72104e-017 -1
-0.0882392 -0.336009 0.074637 -2.89068e-017 -1.02825e-017 -1
-0.105149 -0.336009 0.074637 -3.50321e-017 2.54614e-018 -1
-0.122153 -0.336009 0.074637 -7.58813e-017 -3.00112e-017 -1
-0.139063 -0.336009 0.074637 5.5392e-017 -4.15572e-018 -1
-0.155965 -0.336009 0.074637 -3.90754e-017 6.83664e-018 -1
-0.172969 -0.336009 0.074637 -1.34746e-017 3.73711e-018 -1
-0.189879 -0.336009 0.074637 0.00325009 0.000988537 -0.999994
-0.206866 -0.336009 0.074637 0.0251685 0.00639332 -0.999663
-0.223785 -0.336009 0.074329 0.100316 0.0243692 -0.994657
-0.240515 -0.336009 0.0724479 0.260652 0.0772322 -0.962339
-0.255793 -0.338582 0.0663357 0.496457 0.158074 -0.853548
-0.375202 -0.329138 0.0668772 -0.427509 0.188773 -0.884082
-0.393306 -0.334293 0.0719085 -0.230038 0.0536428 -0.971702
-0.410053 -0.336009 0.0740354 -0.134719 0.0205324 -0.990671
-0.42704 -0.336009 0.0752633 -0.165793 -0.00388862 -0.986153
-0.443357 -0.336009 0.0777788 -0.334075 -0.00445183 -0.942536
-0.457856 -0.338582 0.0840545 -0.598555 -0.003112 -0.801076
0.360339 -0.345451 0.0551777 0.72258 0.214074 -0.657305
0.262321 -0.329138 0.0562588 -0.606882 0.314675 -0.729845
-0.266523 -0.345451 0.0551777 0.722496 0.213988 -0.657425
-0.355975 -0.327422 0.0555725 -0.57581 0.482059 -0.66035
0.352021 -0.33944 0.0408944 0.823195 0.366163 -0.433907
0.26747 -0.337725 0.0447743 -0.789283 0.318779 -0.524796
-0.274849 -0.33944 0.0408944 0.820621 0.36948 -0.435966
-0.352027 -0.335151 0.040328 -0.736383 0.541083 -0.406164
0.346527 -0.338582 0.0246619 0.833005 0.503419 -0.229503
0.27493 -0.336009 0.0273573 -0.80994 0.519731 -0.271802
-0.280352 -0.338582 0.0246619 0.838192 0.49822 -0.221836
-0.350472 -0.338582 0.0238123 -0.817092 0.551625 -0.167541
0.343695 -0.338582 0.00749498 0.827404 0.552882 -0.0986113
0.276741 -0.338582 0.00749498 -0.832471 0.546838 -0.0892185
-0.283186 -0.338582 0.00749498 0.827333 0.553015 -0.0984607
-0.349871 -0.338582 0.00687698 -0.824281 0.56449 -0.0437202
0.343085 -0.338582 -0.00993852 0.824348 0.56534 -0.0290108
0.276904 -0.338582 -0.00999846 -0.828882 0.558706 -0.0283392
-0.283777 -0.338582 -0.00993852 0.824481 0.565147 -0.0289784
-0.349871 -0.338582 -0.0100646 -0.823262 0.567632 -0.00587821
0.342837 -0.338582 -0.0270082 0.824164 0.566315 -0.00646443
0.276991 -0.338582 -0.0270082 -0.824704 0.565564 -0.00120787
-0.284035 -0.338582 -0.0270082 0.824205 0.566254 -0.00651539
-0.349871 -0.338582 -0.0270082 -0.823085 0.567918 6.11887e-008
0.342837 -0.338582 -0.0439497 0.823052 0.567965 -0.0011846
0.276991 -0.338582 -0.0439497 -0.823104 0.56789 -0.000531633
-0.284035 -0.338582 -0.0439497 0.823118 0.56787 -0.001244
-0.349871 -0.338582 -0.0439497 -0.823085 0.567918 -6.13316e-008
0.342837 -0.338582 -0.0608934 0.823151 0.567823 6.10091e-008
0.276991 -0.338582 -0.0608934 -0.823131 0.567851 6.09018e-008
-0.284035 -0.338582 -0.0608934 0.82322 0.567722 6.2139e-008
-0.349871 -0.338582 -0.0608934 -0.823085 0.567918 6.10843e-008
0.342837 -0.338582 -0.0778349 0.823151 0.567823 -6.10856e-008
0.276991 -0.338582 -0.0778349 -0.823131 0.567851 -6.09782e-008
-0.284035 -0.338582 -0.0778349 0.82322 0.567722 -6.22165e-008
-0.349871 -0.338582 -0.0778349 -0.823085 0.567918 -6.11615e-008
0.342837 -0.338582 -0.0947785 0.823151 0.567823 1.47005e-007
0.276991 -0.338582 -0.0947785 -0.823131 0.567851 1.46891e-007
-0.284035 -0.338582 -0.0947785 0.82322 0.567722 1.49378e-007
-0.349871 -0.338582 -0.0947785 -0.823085 0.567918 1.47911e-007
0.342837 -0.338582 -0.11172 0.823151 0.567823 -4.07152e-017
0.276991 -0.338582 -0.11172 -0.823131 0.567851 -3.87729e-016
-0.284035 -0.338582 -0.11172 0.82322 0.567722 9.79935e-019
-0.349871 -0.338582 -0.11172 -0.823085 0.567918 -1.89132e-016
0.342837 -0.338582 -0.128662 0.823151 0.567823 -2.30463e-007
0.276991 -0.338582 -0.128662 -0.823131 0.567851 -2.30342e-007
-0.284035 -0.338582 -0.128662 0.82322 0.567722 -2.34041e-007
-0.349871 -0.338582 -0.128662 -0.823085 0.567918 -2.32175e-007
0.342837 -0.338582 -0.145605 0.823151 0.567823 4.49066e-009
0.276991 -0.338582 -0.145605 -0.823131 0.567851 4.48738e-009
-0.284035 -0.338582 -0.145605 0.82322 0.567722 4.56262e-009
-0.349871 -0.338582 -0.145605 -0.823085 0.567918 4.5194e-009
0.342837 -0.338582 -0.162549 0.823151 0.567823 2.26495e-007
0.276991 -0.338582 -0.162549 -0.823131 0.567851 2.26377e-007
-0.284035 -0.338582 -0.162549 0.82322 0.567722 2.3001e-007
-0.349871 -0.338582 -0.162549 -0.823085 0.567918 2.28181e-007
0.342837 -0.338582 -0.17949 0.823151 0.567823 -5.23125e-009
0.276991 -0.338582 -0.17949 -0.823131 0.567851 -5.22718e-009
-0.284035 -0.338582 -0.17949 0.82322 0.567722 -5.31567e-009
-0.349871 -0.338582 -0.17949 -0.823085 0.567918 -5.26348e-009
0.342837 -0.338582 -0.196432 0.823151 0.567823 -1.38112e-007
0.276991 -0.338582 -0.196432 -0.823131 0.567851 -1.38005e-007
-0.284035 -0.338582 -0.196432 0.82322 0.567722 -1.40341e-007
-0.349871 -0.338582 -0.196432 -0.823085 0.567918 -1.38963e-007
0.342837 -0.338582 -0.213376 0.823151 0.567823 6.01752e-008
0.276991 -0.338582 -0.213376 -0.823131 0.567851 6.00704e-008
-0.284035 -0.338582 -0.213376 0.82322 0.567722 6.12867e-008
-0.349871 -0.338582 -0.213376 -0.823085 0.567918 6.02551e-008
0.342837 -0.338582 -0.230317 0.823151 0.567823 -6.3749e-008
0.276991 -0.338582 -0.230317 -0.823131 0.567851 -6.36411e-008
-0.284035 -0.338582 -0.230317 0.82322 0.567722 -6.49193e-008
-0.349871 -0.338582 -0.230317 -0.823085 0.567918 -6.38488e-008
0.342837 -0.338582 -0.247261 0.823151 0.567823 1.46917e-007
0.276991 -0.338582 -0.247261 -0.823131 0.567851 1.46803e-007
-0.284035 -0.338582 -0.247261 0.82322 0.567722 1.49289e-007
-0.349871 -0.338582 -0.247261 -0.823085 0.567918 1.4782e-007
0.342837 -0.338582 -0.264202 0.823151 0.567823 -1.04625e-009
0.276991 -0.338582 -0.264202 -0.823131 0.567851 -1.04543e-009
-0.284035 -0.338582 -0.264202 0.82322 0.567722 -1.06313e-009
-0.349871 -0.338582 -0.264202 -0.823085 0.567918 -1.0527e-009
0.342837 -0.338582 -0.281144 0.823151 0.567823 -1.47094e-007
0.276991 -0.338582 -0.281144 -0.823131 0.567851 -1.4698e-007
-0.284035 -0.338582 -0.281144 0.82322 0.567722 -1.49467e-007
-0.349871 -0.338582 -0.281144 -0.823085 0.567918 -1.48002e-007
0.342837 -0.338582 -0.298087 0.823151 0.567823 1.47705e-007
0.276991 -0.338582 -0.298087 -0.823131 0.567851 1.47591e-007
-0.284035 -0.338582 -0.298087 0.82322 0.567722 1.50087e-007
-0.349871 -0.338582 -0.298087 -0.823085 0.567918 1.4862e-007
0.342837 -0.338582 -0.315029 0.823151 0.567823 2.0925e-009
0.276991 -0.338582 -0.315029 -0.823131 0.567851 2.09087e-009
-0.284035 -0.338582 -0.315029 0.82322 0.567722 2.12627e-009
-0.349871 -0.338582 -0.315029 -0.823085 0.567918 2.10539e-009
0.342837 -0.338582 -0.33197 0.823151 0.567823 -2.32949e-007
0.276991 -0.338582 -0.33197 -0.823131 0.567851 -2.32827e-007
-0.284035 -0.338582 -0.33197 0.82322 0.567722 -2.36566e-007
-0.349871 -0.338582 -0.33197 -0.823085 0.567918 -2.3468e-007
0.342837 -0.338582 -0.348914 0.823151 0.567823 8.69622e-010
0.276991 -0.338582 -0.348914 -0.823131 0.567851 8.68094e-010
-0.284035 -0.338582 -0.348914 0.82322 0.567722 8.85721e-010
-0.349871 -0.338582 -0.348914 -0.823085 0.567918 8.70703e-010
0.342837 -0.338582 -0.365858 0.823151 0.567823 2.28764e-007
0.276991 -0.338582 -0.365858 -0.823131 0.567851 2.28645e-007
-0.284035 -0.338582 -0.365858 0.82322 0.567722 2.32313e-007
-0.349871 -0.338582 -0.365858 -0.823085 0.567918 2.30469e-007
0.342837 -0.338582 -0.382799 0.823151 0.567823 -2.0925e-009
0.276991 -0.338582 -0.382799 -0.823131 0.567851 -2.09087e-009
-0.284035 -0.338582 -0.382799 0.82322 0.567722 -2.12627e-009
-0.349871 -0.338582 -0.382799 -0.823085 0.567918 -2.10539e-009
0.342837 -0.338582 -0.399741 0.823151 0.567823 -2.26671e-007
0.276991 -0.338582 -0.399741 -0.823131 0.567851 -2.26554e-007
-0.284035 -0.338582 -0.399741 0.82322 0.567722 -2.30187e-007
-0.349871 -0.338582 -0.399741 -0.823085 0.567918 -2.28363e-007
0.342837 -0.338582 -0.416684 0.823151 0.567823 1.22285e-009
0.276991 -0.338582 -0.416684 -0.823131 0.567851 1.22275e-009
-0.284035 -0.338582 -0.416684 0.82322 0.567722 1.24052e-009
-0.349871 -0.338582 -0.416684 -0.823085 0.567918 1.23466e-009
0.342837 -0.338582 -0.433628 0.823151 0.567823 1.44373e-007
0.276991 -0.338582 -0.433628 -0.823131 0.567851 1.44261e-007
-0.284035 -0.338582 -0.433628 0.82322 0.567722 1.46703e-007
-0.349871 -0.338582 -0.433628 -0.823085 0.567918 1.45263e-007
0.342837 -0.338582 -0.45057 0.823151 0.567823 -5.99987e-008
0.276991 -0.338582 -0.45057 -0.823131 0.567851 -5.98933e-008
-0.284035 -0.338582 -0.45057 0.82322 0.567722 -6.11095e-008
-0.349871 -0.338582 -0.45057 -0.823085 0.567918 -6.00733e-008
0.342837 -0.338582 -0.467513 0.823151 0.567823 1.4439e-007
0.276991 -0.338582 -0.467513 -0.823131 0.567851 1.44277e-007
-0.284035 -0.338582 -0.467513 0.82322 0.567722 1.4672e-007
-0.349871 -0.338582 -0.467513 -0.823085 0.567918 1.45279e-007
0.342837 -0.338582 -0.484455 0.823151 0.567823 -1.22303e-009
0.276991 -0.338582 -0.484455 -0.823131 0.567851 -1.22293e-009
-0.284035 -0.338582 -0.484455 0.82322 0.567722 -1.2407e-009
-0.349871 -0.338582 -0.484455 -0.823085 0.567918 -1.23484e-009
0.342837 -0.338582 -0.501396 0.823151 0.567823 -2.32079e-007
0.276991 -0.338582 -0.501396 -0.823131 0.567851 -2.31958e-007
-0.284035 -0.338582 -0.501396 0.82322 0.567722 -2.3568e-007
-0.349871 -0.338582 -0.501396 -0.823085 0.567918 -2.33809e-007
0.342837 -0.338582 -0.51834 0.823151 0.567823 -2.19455e-016
0.276991 -0.338582 -0.51834 -0.823131 0.567851 2.11276e-016
-0.284035 -0.338582 -0.51834 0.82322 0.567722 4.09888e-016
-0.349871 -0.338582 -0.51834 -0.823085 0.567918 -1.73514e-016
0.342837 -0.338582 -0.535284 0.823151 0.567823 2.32079e-007
0.276991 -0.338582 -0.535284 -0.823131 0.567851 2.31958e-007
-0.284035 -0.338582 -0.535284 0.82322 0.567722 2.3568e-007
-0.349871 -0.338582 -0.535284 -0.823085 0.567918 2.33809e-007
0.342837 -0.338582 -0.552225 0.823151 0.567823 8.80601e-008
0.276991 -0.338582 -0.552225 -0.823131 0.567851 8.8053e-008
-0.284035 -0.338582 -0.552225 0.82322 0.567722 8.93326e-008
-0.349871 -0.338582 -0.552225 -0.823085 0.567918 8.89107e-008
0.342837 -0.338582 -0.569167 0.823151 0.567823 -8.14289e-008
0.276991 -0.338582 -0.569167 -0.823131 0.567851 -8.14253e-008
-0.284035 -0.338582 -0.569167 0.82322 0.567722 -8.25985e-008
-0.349871 -0.338582 -0.569167 -0.823085 0.567918 -8.22301e-008
0.342837 -0.338582 -0.586108 0.823151 0.567823 -1.50668e-007
0.276991 -0.338582 -0.586108 -0.823131 0.567851 -1.50551e-007
-0.284035 -0.338582 -0.586108 0.82322 0.567722 -1.53099e-007
-0.349871 -0.338582 -0.586108 -0.823085 0.567918 -1.51596e-007
0.342837 -0.338582 -0.603052 0.823151 0.567823 5.84224e-008
0.276991 -0.338582 -0.603052 -0.823131 0.567851 5.83157e-008
-0.284035 -0.338582 -0.603052 0.82322 0.567722 5.9514e-008
-0.349871 -0.338582 -0.603052 -0.823085 0.567918 5.84745e-008
0.342837 -0.338582 -0.619993 0.823151 0.567823 -6.08681e-008
0.276991 -0.338582 -0.619993 -0.823131 0.567851 -6.07612e-008
-0.284035 -0.338582 -0.619993 0.82322 0.567722 -6.1995e-008
-0.349871 -0.338582 -0.619993 -0.823085 0.567918 -6.09438e-008
0.342837 -0.338582 -0.636937 0.823151 0.567823 8.04367e-008
0.276991 -0.338582 -0.636937 -0.823131 0.567851 8.03282e-008
-0.284035 -0.338582 -0.636937 0.82322 0.567722 8.18464e-008
-0.349871 -0.338582 -0.636937 -0.823085 0.567918 8.07014e-008
0.342837 -0.338582 -0.653879 0.823151 0.567823 -3.71714e-008
0.276991 -0.338582 -0.653879 -0.823131 0.567851 -3.70897e-008
-0.284035 -0.338582 -0.653879 0.82322 0.567722 -3.78993e-008
-0.349871 -0.338582 -0.653879 -0.823085 0.567918 -3.71352e-008
0.342837 -0.338582 -0.670822 0.823151 0.567823 5.46769e-008
0.276991 -0.338582 -0.670822 -0.823131 0.567851 5.46054e-008
-0.284035 -0.338582 -0.670822 0.82322 0.567722 5.56295e-008
-0.349871 -0.338582 -0.670822 -0.823085 0.567918 5.48684e-008
0.342837 -0.338582 -0.687763 0.823151 0.567823 -3.23915e-008
0.276991 -0.338582 -0.687763 -0.823131 0.567851 -3.23509e-008
-0.284035 -0.338582 -0.687763 0.82322 0.567722 -3.29514e-008
-0.349871 -0.338582 -0.687763 -0.823085 0.567918 -3.25141e-008
0.342837 -0.338582 -0.704706 0.823151 0.567823 -7.02235e-008
0.276991 -0.338582 -0.704706 -0.823131 0.567851 -7.02149e-008
-0.284035 -0.338582 -0.704706 0.82322 0.567722 -7.12453e-008
-0.349871 -0.338582 -0.704706 -0.823085 0.567918 -7.08872e-008
0.342837 -0.338582 -0.721649 0.823151 0.567823 -2.26089e-008
0.276991 -0.338582 -0.721649 -0.823131 0.567851 -2.25692e-008
-0.284035 -0.338582 -0.721649 0.82322 0.567722 -2.30275e-008
-0.349871 -0.338582 -0.721649 -0.823085 0.567918 -2.26371e-008
0.342837 -0.338582 -0.738592 0.823151 0.567823 1.17886e-007
0.276991 -0.338582 -0.738592 -0.823131 0.567851 1.17798e-007
-0.284035 -0.338582 -0.738592 0.82322 0.567722 1.1978e-007
-0.349871 -0.338582 -0.738592 -0.823085 0.567918 1.18629e-007
0.342837 -0.338582 -0.755534 0.823151 0.567823 -1.30109e-009
0.276991 -0.338582 -0.755534 -0.823131 0.567851 -1.266e-009
-0.284035 -0.338582 -0.755534 0.82322 0.567722 -1.40471e-009
-0.349871 -0.338582 -0.755534 -0.823085 0.567918 -1.13801e-009
0.342837 -0.338582 -0.772476 0.82315 0.567824 3.72801e-006
0.276991 -0.338582 -0.772476 -0.823131 0.567851 -1.33312e-008
-0.284035 -0.338582 -0.772476 0.823219 0.567723 3.76049e-006
-0.349871 -0.338582 -0.772476 -0.823515 0.567289 -0.00238257
0.342837 -0.338582 -0.789419 0.825546 0.564314 -0.00490208
0.276991 -0.338582 -0.789419 -0.823146 0.567822 -0.00291661
-0.284035 -0.338582 -0.789419 0.825622 0.564202 -0.00492093
-0.349871 -0.338582 -0.789419 -0.823779 0.566757 -0.0132063
0.342837 -0.338582 -0.806267 0.827185 0.56151 -0.0217184
0.276991 -0.338582 -0.806361 -0.823046 0.567535 -0.0223518
-0.284035 -0.338582 -0.806267 0.827229 0.561447 -0.0216639
-0.349871 -0.33944 -0.806361 -0.83343 0.550746 -0.0455442
0.342227 -0.338582 -0.822955 0.825168 0.558854 -0.0823403
0.276741 -0.33944 -0.823116 -0.83294 0.544212 -0.10022
-0.284643 -0.338582 -0.822955 0.822699 0.562185 -0.0843495
-0.349966 -0.341162 -0.823089 -0.846235 0.509598 -0.155552
0.340167 -0.336867 -0.838487 0.777863 0.5635 -0.278205
0.277084 -0.34202 -0.838819 -0.825723 0.482978 -0.291398
-0.286704 -0.336867 -0.838487 0.774238 0.566592 -0.282009
-0.349356 -0.346309 -0.838522 -0.860385 0.38812 -0.330303
0.336485 -0.335151 -0.849593 0.628943 0.598718 -0.495951
0.280689 -0.347167 -0.852597 -0.74386 0.334603 -0.578544
-0.290395 -0.335151 -0.849593 0.617313 0.60529 -0.502543
-0.337683 -0.342878 -0.854867 -0.578469 0.490362 -0.651858
0.333815 -0.340298 -0.85775 0.566561 0.500681 -0.654467
0.323 -0.33944 -0.861888 0.322594 0.529282 -0.784725
0.307807 -0.33944 -0.863151 -0.0823936 0.555305 -0.827556
0.292794 -0.34202 -0.86058 -0.455488 0.48487 -0.746613
-0.293143 -0.340298 -0.857698 0.558223 0.51149 -0.653273
-0.304387 -0.33944 -0.861569 0.306572 0.550905 -0.77622
-0.321374 -0.341162 -0.862418 -0.195177 0.526222 -0.827645
-0.330395 -0.347167 -0.864874 -0.35622 0.376942 -0.854998
0.434244 -0.32056 0.153162 0.527634 -0.108393 0.842528
0.419566 -0.318844 0.157908 0.254242 -0.0601965 0.965265
0.403086 -0.318844 0.159281 0.0815659 -0.0240527 0.996378
0.386185 -0.318844 0.159359 0.0154924 -0.00418873 0.999871
0.369188 -0.318844 0.159359 0.000603912 8.26526e-009 1
0.352269 -0.318844 0.159359 -1.11188e-016 4.55651e-019 1
0.335361 -0.318844 0.159359 -7.09296e-017 -2.1416e-019 1
0.318374 -0.318844 0.159359 3.36516e-018 1.15153e-019 1
0.301455 -0.318844 0.159359 -2.31371e-016 -1.12311e-019 1
0.284468 -0.318844 0.159359 0 0 1
0.267557 -0.318844 0.159359 -2.41035e-016 1.11762e-019 1
0.250638 -0.318844 0.159359 0 -0 1
0.233651 -0.318844 0.159359 0 0 1
0.216741 -0.318844 0.159359 0 -0 1
0.199832 -0.318844 0.159359 0 -0 1
0.182827 -0.318844 0.159359 2.59632e-016 -5.55173e-020 1
0.165926 -0.318844 0.159359 8.42576e-017 4.67054e-020 1
0.148921 -0.318844 0.159359 0 0 1
0.132011 -0.318844 0.159359 -1.36749e-016 6.42877e-020 1
0.11511 -0.318844 0.159359 7.97534e-017 -6.69388e-020 1
0.0981054 -0.318844 0.159359 -3.13106e-017 9.19634e-020 1
0.0811953 -0.318844 0.159359 1.6474e-016 4.46861e-020 1
0.0642939 -0.318844 0.159359 0 -0 1
0.0472984 -0.318844 0.159359 1.16451e-016 2.52708e-020 1
0.0303798 -0.318844 0.159359 0 0 1
0.0133924 -0.318844 0.159359 1.9433e-016 1.37892e-020 1
-0.00351766 -0.318844 0.159359 2.65398e-016 -1.62408e-021 1
-0.0204363 -0.318844 0.159359 8.26817e-017 -5.47325e-021 1
-0.0374232 -0.318844 0.159359 1.16389e-016 2.52904e-020 1
-0.0543333 -0.318844 0.159359 -1.40767e-016 -3.0603e-020 1
-0.0713379 -0.318844 0.159359 -7.06752e-017 4.7007e-020 1
-0.0882392 -0.318844 0.159359 -2.47756e-016 -5.60203e-020 1
-0.105149 -0.318844 0.159359 -7.11052e-017 -4.70424e-020 1
-0.122153 -0.318844 0.159359 -3.16687e-016 1.02773e-019 1
-0.139063 -0.318844 0.159359 0 0 1
-0.155965 -0.318844 0.159359 0 -0 1
-0.172969 -0.318844 0.159359 -4.05691e-016 1.19257e-019 1
-0.189879 -0.318844 0.159359 1.53069e-016 1.60147e-019 1
-0.206866 -0.318844 0.159359 2.44345e-016 1.1132e-019 1
-0.223785 -0.318844 0.159359 -4.97504e-018 -1.14508e-019 1
-0.240695 -0.318844 0.159359 -1.26606e-016 -3.45121e-019 1
-0.257682 -0.318844 0.159359 -3.80342e-016 1.19818e-019 1
-0.274593 -0.318844 0.159359 4.84391e-018 -1.14505e-019 1
-0.291512 -0.318844 0.159359 -1.07191e-016 3.42491e-019 1
-0.308499 -0.318844 0.159359 0 -0 1
-0.325407 -0.318844 0.159359 0 -0 1
-0.342413 -0.318844 0.159359 0 0 1
-0.359313 -0.318844 0.159359 -3.18179e-017 2.23452e-019 1
-0.376224 -0.318844 0.159359 3.16008e-016 1.02746e-019 1
-0.393227 -0.318844 0.159359 -0.00535799 6.24493e-008 0.999986
-0.410129 -0.318844 0.159359 -0.0347492 3.61415e-005 0.999396
-0.42704 -0.318844 0.158733 -0.133999 0.0055732 0.990966
-0.443357 -0.317986 0.156217 -0.329717 0.00441585 0.944069
0.446186 -0.323133 0.141033 0.819726 -0.128932 0.558056
0.444718 -0.306826 0.148207 0.683098 -0.143545 0.716081
-0.457856 -0.315407 0.149942 -0.598473 0.00306761 0.801137
-0.468507 -0.3094 0.139274 -0.833593 -0.000167319 0.552379
0.452356 -0.319702 0.123942 0.979299 -0.148901 0.137117
-0.474173 -0.316264 0.124844 -0.980404 0.000103089 0.196998
0.452356 -0.316264 0.108276 0.95931 -0.158326 -0.233788
-0.474173 -0.321418 0.109153 -0.980405 -2.47175e-005 -0.196993
0.448588 -0.3094 0.0943112 0.835814 -0.166243 -0.523239
-0.468507 -0.32828 0.0947225 -0.833595 0.000166096 -0.552376
0.435712 -0.312831 0.0827563 0.550602 -0.105535 -0.82807
0.419661 -0.317986 0.0774006 0.298721 -0.0390353 -0.953542
0.403172 -0.318844 0.0751703 0.158492 0.00381173 -0.987353
0.386099 -0.318844 0.0734959 0.201877 0.0861317 -0.975616
0.369438 -0.32056 0.0693143 0.369179 0.219105 -0.903161
0.251412 -0.313689 0.0675304 -0.338055 0.213479 -0.916594
0.233565 -0.317986 0.0720097 -0.208645 0.0719202 -0.975343
0.216828 -0.318844 0.0740354 -0.0855717 0.0202703 -0.996126
0.199832 -0.318844 0.074637 -0.0280242 0.00266317 -0.999604
0.182827 -0.318844 0.074637 -0.00462182 -6.27057e-008 -0.999989
0.165926 -0.318844 0.074637 7.33692e-017 3.32417e-018 -1
0.148921 -0.318844 0.074637 -1.39254e-017 3.58274e-018 -1
0.132011 -0.318844 0.074637 2.68345e-018 3.56404e-018 -1
0.11511 -0.318844 0.074637 4.60058e-017 3.44071e-018 -1
0.0981054 -0.318844 0.074637 -1.40143e-017 -1.54833e-017 -1
0.0811953 -0.318844 0.074637 6.08117e-017 3.52457e-018 -1
0.0642939 -0.318844 0.074637 -4.63013e-018 3.45323e-018 -1
0.0472984 -0.318844 0.074637 7.52221e-017 3.42467e-018 -1
0.0303798 -0.318844 0.074637 5.4466e-017 3.47419e-018 -1
0.0133924 -0.318844 0.074637 7.45838e-017 3.46361e-018 -1
-0.00351766 -0.318844 0.074637 2.82287e-017 3.4845e-018 -1
-0.0204363 -0.318844 0.074637 -2.35988e-017 5.56128e-017 -1
-0.0374232 -0.318844 0.074637 -0 0 -1
-0.0543333 -0.318844 0.074637 -5.12517e-017 3.49366e-018 -1
-0.0713379 -0.318844 0.074637 -5.42028e-017 -1.55457e-017 -1
-0.0882392 -0.318844 0.074637 -3.01653e-018 3.46723e-018 -1
-0.105149 -0.318844 0.074637 3.69266e-017 -1.55005e-017 -1
-0.122153 -0.318844 0.074637 2.95301e-017 3.38682e-018 -1
-0.139063 -0.318844 0.074637 -3.04822e-017 3.36987e-018 -1
-0.155965 -0.318844 0.074637 -4.62288e-017 3.52517e-018 -1
-0.172969 -0.318844 0.074637 1.71934e-017 3.3842e-018 -1
-0.189879 -0.318844 0.074637 0.00108104 0.000417298 -0.999999
-0.206866 -0.318844 0.074637 0.014771 0.00380178 -0.999884
-0.223785 -0.318844 0.0745605 0.0537209 0.0232627 -0.998285
-0.240772 -0.318844 0.0734959 0.169319 0.08852 -0.981578
-0.257434 -0.32056 0.0693143 0.362952 0.220071 -0.905447
-0.363271 -0.312831 0.0675903 -0.305484 0.316358 -0.898107
-0.380515 -0.312831 0.0719332 -0.203532 0.164539 -0.965143
-0.393572 -0.317122 0.0729709 -0.12809 0.0700902 -0.989283
-0.410129 -0.318844 0.0742173 -0.101748 0.0253211 -0.994488
-0.42704 -0.318844 0.0752633 -0.157104 -0.00186986 -0.98758
-0.443357 -0.319702 0.0777788 -0.333204 -0.00422612 -0.942845
-0.457856 -0.322275 0.0840545 -0.598474 -0.00299848 -0.801136
0.35494 -0.326565 0.0576933 0.56302 0.413411 -0.715612
0.339317 -0.313689 0.0562588 0.340457 0.622991 -0.704252
0.323694 -0.310258 0.0555725 0.17946 0.726178 -0.663671
0.307557 -0.3094 0.0548863 -0.0224551 0.758765 -0.650977
0.290638 -0.310258 0.0551777 -0.212499 0.690487 -0.691428
0.272278 -0.314549 0.0576933 -0.392464 0.517446 -0.760409
-0.271939 -0.326565 0.0576933 0.562813 0.413658 -0.715631
-0.287562 -0.313689 0.0562588 0.331302 0.624431 -0.707337
-0.303263 -0.310258 0.0556407 0.151972 0.725354 -0.671391
-0.320087 -0.310258 0.0554258 -0.0907996 0.750877 -0.65417
-0.340695 -0.313689 0.0575032 -0.299172 0.635837 -0.711483
0.343428 -0.326565 0.0419755 0.604026 0.637844 -0.477815
0.332363 -0.318844 0.0447743 0.369025 0.790202 -0.489287
0.320089 -0.317122 0.0414174 0.200769 0.886212 -0.417517
0.304123 -0.317122 0.0404913 -0.0635582 0.911839 -0.405597
0.287806 -0.318844 0.0408944 -0.386487 0.799307 -0.460148
0.275017 -0.327422 0.0419755 -0.620894 0.597371 -0.507581
-0.283442 -0.326565 0.0419755 0.600096 0.640432 -0.479304
-0.294507 -0.318844 0.0447743 0.355621 0.794096 -0.492894
-0.306953 -0.317986 0.0415558 0.165416 0.892757 -0.419074
-0.323613 -0.317986 0.0408944 -0.156388 0.903214 -0.399685
-0.340009 -0.323991 0.0407146 -0.476307 0.774114 -0.416987
0.334767 -0.326565 0.0273573 0.538623 0.802105 -0.257901
0.318622 -0.321418 0.0245254 0.205905 0.955949 -0.2092
0.302571 -0.32056 0.024019 -0.150859 0.964137 -0.21836
0.287376 -0.324849 0.0246619 -0.498144 0.833865 -0.237744
-0.292103 -0.326565 0.0273573 0.529773 0.808245 -0.25706
-0.308335 -0.321418 0.0245937 0.168935 0.965507 -0.198132
-0.324549 -0.321418 0.024019 -0.205597 0.963613 -0.170819
-0.339494 -0.327422 0.0238805 -0.543897 0.821048 -0.173365
0.332614 -0.32828 0.00749498 0.561805 0.822219 -0.091279
0.317849 -0.322275 0.00700511 0.194463 0.977906 -0.0767043
0.302065 -0.321418 0.00700511 -0.160778 0.983783 -0.0795118
0.287376 -0.327422 0.00749498 -0.559868 0.822701 -0.0985438
-0.294257 -0.32828 0.00749498 0.555343 0.827243 -0.0852252
-0.309013 -0.322275 0.00700511 0.178975 0.981862 -0.0625669
-0.324816 -0.322275 0.00687698 -0.191749 0.980167 -0.0500448
-0.339236 -0.32828 0.00687698 -0.569226 0.820883 -0.0461775
0.33227 -0.32828 -0.00999846 0.563824 0.825466 -0.0266148
0.317764 -0.322275 -0.0100646 0.196988 0.98029 -0.0150672
0.302065 -0.322275 -0.00999846 -0.194333 0.980793 -0.0167053
0.287556 -0.32828 -0.00993852 -0.56782 0.822755 -0.025561
-0.294592 -0.32828 -0.00999846 0.560433 0.827868 -0.0234148
-0.309108 -0.322275 -0.0100646 0.190439 0.98166 -0.00870125
-0.324816 -0.322275 -0.0100646 -0.199747 0.979813 -0.00826072
-0.339236 -0.32828 -0.0100646 -0.567253 0.82352 -0.00628594
0.332184 -0.32828 -0.0270082 0.563579 0.826062 -0.000589239
0.317764 -0.322275 -0.0270082 0.195098 0.980783 0.000802427
0.302065 -0.322275 -0.0270082 -0.19586 0.980619 -0.00496665
0.287643 -0.32828 -0.0270082 -0.565081 0.825027 -0.00377179
-0.294687 -0.32828 -0.0270082 0.563687 0.825988 -0.000662727
-0.309108 -0.322275 -0.0270082 0.194928 0.980817 -0.00119837
-0.324816 -0.322275 -0.0270082 -0.198317 0.980138 -0.000235005
-0.339236 -0.32828 -0.0270082 -0.566842 0.823826 5.40115e-008
0.332184 -0.32828 -0.0439497 0.566473 0.824079 -0.00105814
0.317764 -0.322275 -0.0439497 0.196156 0.980571 0.00206847
0.302065 -0.322275 -0.0439497 -0.196211 0.980562 -0.00018952
0.287643 -0.32828 -0.0439497 -0.566606 0.823988 -0.000522903
-0.294687 -0.32828 -0.0439497 0.56664 0.823965 -0.00111579
-0.309108 -0.322275 -0.0439497 0.196304 0.980543 -0.000186111
-0.324816 -0.322275 -0.0439497 -0.198011 0.9802 3.27247e-008
-0.339236 -0.32828 -0.0439497 -0.566842 0.823826 -5.41918e-008
0.332184 -0.32828 -0.0608934 0.566587 0.824002 5.54512e-008
0.317764 -0.322275 -0.0608934 0.19767 0.980269 -3.47569e-008
0.302065 -0.322275 -0.0608934 -0.19764 0.980275 -3.47162e-008
0.287643 -0.32828 -0.0608934 -0.566607 0.823988 5.53144e-008
-0.294687 -0.32828 -0.0608934 0.566755 0.823886 5.66223e-008
-0.309108 -0.322275 -0.0608934 0.197734 0.980256 -3.45002e-008
-0.324816 -0.322275 -0.0608934 -0.198011 0.9802 -3.26873e-008
-0.339236 -0.32828 -0.0608934 -0.566842 0.823826 5.38833e-008
0.332184 -0.32828 -0.0778349 0.566587 0.824002 -5.55578e-008
0.317764 -0.322275 -0.0778349 0.19767 0.980269 3.47628e-008
0.302065 -0.322275 -0.0778349 -0.19764 0.980275 3.47219e-008
0.287643 -0.32828 -0.0778349 -0.566607 0.823988 -5.54208e-008
-0.294687 -0.32828 -0.0778349 0.566755 0.823886 -5.67302e-008
-0.309108 -0.322275 -0.0778349 0.197734 0.980256 3.45057e-008
-0.324816 -0.322275 -0.0778349 -0.198011 0.9802 3.26906e-008
-0.339236 -0.32828 -0.0778349 -0.566842 0.823826 -5.39875e-008
0.332184 -0.32828 -0.0947785 0.566587 0.824002 1.75445e-007
0.317764 -0.322275 -0.0947785 0.19767 0.980269 -4.13709e-008
0.302065 -0.322275 -0.0947785 -0.19764 0.980275 -4.11845e-008
0.287643 -0.32828 -0.0947785 -0.566607 0.823988 1.75007e-007
-0.294687 -0.32828 -0.0947785 0.566755 0.823886 1.78011e-007
-0.309108 -0.322275 -0.0947785 0.197734 0.980256 -4.06992e-008
-0.324816 -0.322275 -0.0947785 -0.198011 0.9802 -3.64646e-008
-0.339236 -0.32828 -0.0947785 -0.566842 0.823826 1.71126e-007
0.332184 -0.32828 -0.11172 0.566587 0.824002 1.33685e-016
0.317764 -0.322275 -0.11172 0.19767 0.980269 -5.33827e-016
0.302065 -0.322275 -0.11172 -0.19764 0.980275 8.91153e-019
0.287643 -0.32828 -0.11172 -0.566607 0.823988 1.50764e-016
-0.294687 -0.32828 -0.11172 0.566755 0.823886 -1.67878e-016
-0.309108 -0.322275 -0.11172 0.197734 0.980256 -8.91086e-019
-0.324816 -0.322275 -0.11172 -0.198011 0.9802 -6.31614e-016
-0.339236 -0.32828 -0.11172 -0.566842 0.823826 -7.60814e-017
0.332184 -0.32828 -0.128662 0.566587 0.824002 -2.919e-007
0.317764 -0.322275 -0.128662 0.19767 0.980269 4.77851e-008
0.302065 -0.322275 -0.128662 -0.19764 0.980275 4.74574e-008
0.287643 -0.32828 -0.128662 -0.566607 0.823988 -2.9117e-007
-0.294687 -0.32828 -0.128662 0.566755 0.823886 -2.9582e-007
-0.309108 -0.322275 -0.128662 0.197734 0.980256 4.67107e-008
-0.324816 -0.322275 -0.128662 -0.198011 0.9802 4.0126e-008
-0.339236 -0.32828 -0.128662 -0.566842 0.823826 -2.84911e-007
0.332184 -0.32828 -0.145605 0.566587 0.824002 5.42111e-009
0.317764 -0.322275 -0.145605 0.19767 0.980269 -1.20127e-009
0.302065 -0.322275 -0.145605 -0.19764 0.980275 -1.19544e-009
0.287643 -0.32828 -0.145605 -0.566607 0.823988 5.40758e-009
-0.294687 -0.32828 -0.145605 0.566755 0.823886 5.49914e-009
-0.309108 -0.322275 -0.145605 0.197734 0.980256 -1.18067e-009
-0.324816 -0.322275 -0.145605 -0.198011 0.9802 -1.05151e-009
-0.339236 -0.32828 -0.145605 -0.566842 0.823826 5.28838e-009
0.332184 -0.32828 -0.162549 0.566587 0.824002 2.87103e-007
0.317764 -0.322275 -0.162549 0.19767 0.980269 -4.67309e-008
0.302065 -0.322275 -0.162549 -0.19764 0.980275 -4.64084e-008
0.287643 -0.32828 -0.162549 -0.566607 0.823988 2.86385e-007
-0.294687 -0.32828 -0.162549 0.566755 0.823886 2.90955e-007
-0.309108 -0.322275 -0.162549 0.197734 0.980256 -4.56747e-008
-0.324816 -0.322275 -0.162549 -0.198011 0.9802 -3.92041e-008
-0.339236 -0.32828 -0.162549 -0.566842 0.823826 2.80231e-007
0.332184 -0.32828 -0.17949 0.566587 0.824002 -6.24333e-009
0.317764 -0.322275 -0.17949 0.19767 0.980269 1.47215e-009
0.302065 -0.322275 -0.17949 -0.19764 0.980275 1.46551e-009
0.287643 -0.32828 -0.17949 -0.566607 0.823988 -6.22775e-009
-0.294687 -0.32828 -0.17949 0.566755 0.823886 -6.33466e-009
-0.309108 -0.322275 -0.17949 0.197734 0.980256 1.44824e-009
-0.324816 -0.322275 -0.17949 -0.198011 0.9802 1.29755e-009
-0.339236 -0.32828 -0.17949 -0.566842 0.823826 -6.08963e-009
0.332184 -0.32828 -0.196432 0.566587 0.824002 -1.64831e-007
0.317764 -0.322275 -0.196432 0.19767 0.980269 3.8868e-008
0.302065 -0.322275 -0.196432 -0.19764 0.980275 3.86929e-008
0.287643 -0.32828 -0.196432 -0.566607 0.823988 -1.64419e-007
-0.294687 -0.32828 -0.196432 0.566755 0.823886 -1.67242e-007
-0.309108 -0.322275 -0.196432 0.197734 0.980256 3.8237e-008
-0.324816 -0.322275 -0.196432 -0.198011 0.9802 3.42585e-008
-0.339236 -0.32828 -0.196432 -0.566842 0.823826 -1.60773e-007
0.332184 -0.32828 -0.213376 0.566587 0.824002 5.50268e-008
0.317764 -0.322275 -0.213376 0.19767 0.980269 -3.39439e-008
0.302065 -0.322275 -0.213376 -0.19764 0.980275 -3.39029e-008
0.287643 -0.32828 -0.213376 -0.566607 0.823988 5.4891e-008
-0.294687 -0.32828 -0.213376 0.566755 0.823886 5.61799e-008
-0.309108 -0.322275 -0.213376 0.197734 0.980256 -3.36902e-008
-0.324816 -0.322275 -0.213376 -0.198011 0.9802 -3.19031e-008
-0.339236 -0.32828 -0.213376 -0.566842 0.823826 5.3476e-008
0.332184 -0.32828 -0.230317 0.566587 0.824002 -5.91687e-008
0.317764 -0.322275 -0.230317 0.19767 0.980269 3.50747e-008
0.302065 -0.322275 -0.230317 -0.19764 0.980275 3.50295e-008
0.287643 -0.32828 -0.230317 -0.566607 0.823988 -5.90226e-008
-0.294687 -0.32828 -0.230317 0.566755 0.823886 -6.03849e-008
-0.309108 -0.322275 -0.230317 0.197734 0.980256 3.48048e-008
-0.324816 -0.322275 -0.230317 -0.198011 0.9802 3.29144e-008
-0.339236 -0.32828 -0.230317 -0.566842 0.823826 -5.75145e-008
0.332184 -0.32828 -0.247261 0.566587 0.824002 1.75216e-007
0.317764 -0.322275 -0.247261 0.19767 0.980269 -4.14711e-008
0.302065 -0.322275 -0.247261 -0.19764 0.980275 -4.12851e-008
0.287643 -0.32828 -0.247261 -0.566607 0.823988 1.74779e-007
-0.294687 -0.32828 -0.247261 0.566755 0.823886 1.77782e-007
-0.309108 -0.322275 -0.247261 0.197734 0.980256 -4.08e-008
-0.324816 -0.322275 -0.247261 -0.198011 0.9802 -3.65675e-008
-0.339236 -0.32828 -0.247261 -0.566842 0.823826 1.70901e-007
0.332184 -0.32828 -0.264202 0.566587 0.824002 -1.24866e-009
0.317764 -0.322275 -0.264202 0.19767 0.980269 2.94428e-010
0.302065 -0.322275 -0.264202 -0.19764 0.980275 2.93102e-010
0.287643 -0.32828 -0.264202 -0.566607 0.823988 -1.24555e-009
-0.294687 -0.32828 -0.264202 0.566755 0.823886 -1.26693e-009
-0.309108 -0.322275 -0.264202 0.197734 0.980256 2.89647e-010
-0.324816 -0.322275 -0.264202 -0.198011 0.9802 2.59509e-010
-0.339236 -0.32828 -0.264202 -0.566842 0.823826 -1.21792e-009
0.332184 -0.32828 -0.281144 0.566587 0.824002 -1.75674e-007
0.317764 -0.322275 -0.281144 0.19767 0.980269 4.12707e-008
0.302065 -0.322275 -0.281144 -0.19764 0.980275 4.10839e-008
0.287643 -0.32828 -0.281144 -0.566607 0.823988 -1.75235e-007
-0.294687 -0.32828 -0.281144 0.566755 0.823886 -1.78241e-007
-0.309108 -0.322275 -0.281144 0.197734 0.980256 4.05984e-008
-0.324816 -0.322275 -0.281144 -0.198011 0.9802 3.63616e-008
-0.339236 -0.32828 -0.281144 -0.566842 0.823826 -1.7135e-007
0.332184 -0.32828 -0.298087 0.566587 0.824002 1.76527e-007
0.317764 -0.322275 -0.298087 0.19767 0.980269 -4.13177e-008
0.302065 -0.322275 -0.298087 -0.19764 0.980275 -4.11299e-008
0.287643 -0.32828 -0.298087 -0.566607 0.823988 1.76086e-007
-0.294687 -0.32828 -0.298087 0.566755 0.823886 1.79104e-007
-0.309108 -0.322275 -0.298087 0.197734 0.980256 -4.06425e-008
-0.324816 -0.322275 -0.298087 -0.198011 0.9802 -3.63885e-008
-0.339236 -0.32828 -0.298087 -0.566842 0.823826 1.72184e-007
0.332184 -0.32828 -0.315029 0.566587 0.824002 2.49733e-009
0.317764 -0.322275 -0.315029 0.19767 0.980269 -5.88856e-010
0.302065 -0.322275 -0.315029 -0.19764 0.980275 -5.86203e-010
0.287643 -0.32828 -0.315029 -0.566607 0.823988 2.4911e-009
-0.294687 -0.32828 -0.315029 0.566755 0.823886 2.53386e-009
-0.309108 -0.322275 -0.315029 0.197734 0.980256 -5.79296e-010
-0.324816 -0.322275 -0.315029 -0.198011 0.9802 -5.1902e-010
-0.339236 -0.32828 -0.315029 -0.566842 0.823826 2.43585e-009
0.332184 -0.32828 -0.33197 0.566587 0.824002 -2.95053e-007
0.317764 -0.322275 -0.33197 0.19767 0.980269 4.82973e-008
0.302065 -0.322275 -0.33197 -0.19764 0.980275 4.7966e-008
0.287643 -0.32828 -0.33197 -0.566607 0.823988 -2.94315e-007
-0.294687 -0.32828 -0.33197 0.566755 0.823886 -2.99016e-007
-0.309108 -0.322275 -0.33197 0.197734 0.980256 4.72113e-008
-0.324816 -0.322275 -0.33197 -0.198011 0.9802 4.05554e-008
-0.339236 -0.32828 -0.33197 -0.566842 0.823826 -2.87988e-007
0.332184 -0.32828 -0.348914 0.566587 0.824002 7.90977e-010
0.317764 -0.322275 -0.348914 0.19767 0.980269 -4.94839e-010
