ply
format ascii 1.0
element vertex 844
property float x
property float y
property float z
property float nx
property float ny
property float nz
end_header
-0.136464 0.263232 0.794961 0.0144722 -0.755521 -0.654965
-0.204031 -0.190948 -0.180783 0 -0 -1
0.19962 -0.200706 -0.180783 4.28353e-017 5.19851e-017 -1
-0.357158 0.208815 -0.180783 -0.354739 0.0420314 -0.93402
-0.0540052 0.26003 0.464628 -0.0368163 -0.98056 -0.192735
0.193467 -0.127431 -0.180783 -1.34919e-016 1.86388e-017 -1
0.371415 0.321349 -0.587052 0.513662 0.85773 -0.0212249
-0.30874 0.294776 0.303223 0.996574 0.0824784 -0.00620188
-0.197098 0.26003 0.456815 -0.0238309 -0.918721 -0.394186
-0.338227 -0.324539 -0.103846 -2.13502e-006 -1 0.000158964
-0.354692 0.26003 -0.305944 -0.235735 -0.971673 -0.0167293
-0.137907 0.262515 -0.180783 -8.62647e-018 6.2048e-017 -1
0.174345 -0.324533 -0.0859994 3.47925e-006 -1 0.000340353
0.256416 0.282687 0.0725745 -0.00132214 0.00663421 0.999977
0.362821 -0.209634 -0.180783 0.313653 0.0226538 -0.949268
0.366965 0.321349 0.249534 0.364457 0.930743 0.0297968
-0.0571815 0.307722 0.442856 -0.00919415 0.378616 -0.925508
0.310925 -0.0656364 -0.180783 -7.75549e-018 -3.87286e-017 -1
0.0542808 -0.324539 -0.160715 -0.0681745 -0.961366 -0.266696
-0.226546 -0.324475 -0.0166192 -1.32971e-005 -0.999999 0.00164881
0.378092 0.272821 0.590507 0.910838 -0.412308 0.0193704
0.31761 0.310323 -0.797924 -0.913238 0.405697 -0.0374941
0.378028 0.0357985 0.00898236 0.999999 -4.90971e-006 0.00170741
0.378092 0.28905 -0.436083 0.999727 -0.023117 -0.0034232
0.31761 0.308523 0.370658 -0.913119 0.405199 0.045029
0.204089 0.215125 -0.180783 -0 -0 -1
-0.12133 0.224454 -0.180783 -0 0 -1
-0.30838 0.142278 -0.180783 -4.3598e-017 2.51917e-016 -1
-0.374942 0.124058 -0.0281712 -1 -1.29603e-005 0.000815309
-0.360646 0.26003 0.470969 -0.381504 -0.924356 0.00455902
0.31761 0.299232 -0.20018 -0.950821 0.17854 -0.253107
0.0134476 0.26003 0.810504 -0.0728261 -0.917364 -0.391331
-0.374856 0.0447833 0.0182352 -0.999995 1.9328e-005 0.00329613
-0.374996 0.0654224 -0.130351 -1 -0 -0
0.372967 -0.323043 0.0680883 0.52305 -0.701275 0.484388
0.378066 -0.164189 -0.0184677 1 -1.37732e-005 0.000969808
0.122292 -0.320754 0.071499 0.0244251 -0.655058 0.755184
-0.24091 -0.324539 -0.0977157 5.57176e-006 -1 0.00023743
0.174595 -0.0479028 0.0725745 -3.95242e-017 1.30288e-017 1
0.378092 0.277888 -0.819074 0.938221 -0.344902 0.0279857
0.288824 -0.218248 -0.180783 -1.65825e-016 5.35769e-017 -1
0.0742282 -0.324539 -0.103934 -7.70594e-006 -1 0.000162656
-0.275332 0.321349 0.823466 -0.023505 0.993801 -0.108658
-0.30874 0.305062 -0.808258 0.956938 0.290184 0.00793656
0.266057 0.032745 0.0725745 0 -0 1
-0.30874 0.287267 -0.726748 0.998494 -0.053171 0.0134885
0.378092 0.312308 -0.681018 0.818682 0.574041 0.0153593
0.0312851 -0.324507 -0.0423048 -1.73265e-005 -0.999999 0.00101044
-0.226841 0.321349 -0.103233 -6.22288e-006 1 0.000169846
-0.30874 -0.288022 -0.361355 0.994423 0.105182 0.00770031
0.0338795 0.321126 0.0298373 0.000161229 0.999968 0.00796446
0.378076 0.303362 -0.861888 0.866822 0.204579 -0.454717
-0.322994 0.26003 0.804342 0.0588893 -0.996278 -0.0629492
0.378088 -0.225324 -0.0479747 1 -3.06669e-006 0.000473786
-0.242302 0.260671 0.794981 -0.0213466 -0.790647 -0.6119
0.0350301 0.288988 0.0725745 -0.00880532 0.0499753 0.998712
-0.145061 -0.260612 -0.180783 -1.11755e-016 -1.56535e-017 -1
0.251068 -0.128558 -0.180783 1.48647e-016 1.28895e-016 -1
0.378092 0.0571547 -0.0711949 1 1.38494e-005 7.28094e-005
0.31761 0.308869 0.19753 -0.900396 0.434217 0.027253
0.172201 0.321349 -0.0991396 -3.02497e-007 1 0.00022021
0.350081 0.26003 0.531108 0.0727417 -0.997212 0.0166692
-0.374996 -0.275759 -0.310569 -0.942914 0.331061 0.0362096
0.0250196 0.293516 -0.180783 0.00584854 0.0336808 -0.999416
0.369611 0.26003 -0.525729 0.435716 -0.899912 0.0176389
0.0228277 0.0738196 -0.180783 -0 -0 -1
0.325794 0.111791 -0.180783 7.07476e-017 -1.21745e-016 -1
-0.374988 -0.306009 -0.831671 -0.957278 -0.288405 0.0209901
0.0942504 -0.100441 0.0725745 6.95495e-017 -5.21907e-017 1
-0.251509 -0.324441 0.00162815 -9.48143e-006 -0.999997 0.00231132
0.311059 -0.324533 -0.084287 -1.87058e-006 -1 0.000350699
0.0918108 0.0414197 0.0725745 -5.3673e-017 -1.39186e-017 1
0.22357 -0.324499 -0.0354092 -1.91814e-005 -0.999999 0.00109895
-0.169644 0.0928362 0.0725745 -1.00762e-016 -3.17293e-017 1
0.100466 -0.324539 -0.100397 -2.79698e-006 -1 0.000206035
0.0805476 0.0630923 0.0725745 7.4841e-017 -1.02452e-017 1
-0.102815 0.299326 0.515699 0.017948 0.217991 0.975786
-0.0719892 -0.0337232 0.0725745 -1.52397e-017 3.45394e-017 1
-0.374996 0.288397 0.210226 -0.99593 -0.0894749 -0.0108228
0.254122 0.294642 0.871583 0.00173228 0.0931349 0.995652
-0.30874 -0.320618 -0.479617 0.756928 -0.653485 0.00414855
-0.30874 -0.27595 -0.554607 0.931446 0.363871 -0.00260458
0.150776 0.320906 0.054181 -0.00913715 0.947244 0.320384
-0.293998 -0.00810726 0.0725745 2.2187e-017 1.26432e-016 1
-0.17093 0.266941 0.794832 0.00877845 -0.52224 -0.852754
-0.0842458 0.273697 0.795013 -0.00266931 -0.347039 -0.937847
-0.330218 0.260028 -0.222539 0.188426 -0.982014 0.0119745
0.284587 0.299731 0.515735 0.0176999 0.221155 0.975078
0.195959 -0.175821 -0.180783 -0 0 -1
-0.374996 0.300021 0.60726 -0.981888 0.188877 0.0148507
0.378092 0.272457 -0.540502 0.920826 -0.389476 0.0196871
-0.252576 0.260032 0.467484 -0.00207046 -0.991618 -0.129189
-0.298003 -0.0150415 -0.180783 3.1318e-016 -1.73522e-016 -1
0.37808 0.0793593 -0.0376664 1 1.5641e-005 0.000666289
0.31761 -0.311363 -0.26922 -0.917169 -0.394913 0.0533434
-0.336218 0.321349 -0.260191 0.0834348 0.996337 0.0187401
0.0833152 0.142171 -0.180783 0 -0 -1
0.0180252 0.262765 0.444096 0.0064062 -0.664817 -0.746979
0.238014 0.319981 0.0655828 -0.00374754 0.878122 0.478423
0.0411273 0.215204 -0.180783 -0 -0 -1
-0.364458 0.321349 0.217235 -0.495525 0.868568 0.00667066
-0.345962 0.290192 0.871583 -0.0233438 -0.0299987 0.999277
-0.202513 0.279467 -0.180783 1.04708e-016 -2.16563e-016 -1
0.31761 -0.268323 -0.686843 -0.811844 0.583287 0.0261668
0.341277 -0.260024 -0.271062 -0.119969 0.99266 0.0152837
0.0560648 0.26016 0.796725 0.0163261 -0.750538 -0.660626
0.295648 0.26598 0.443419 -0.151786 -0.667582 -0.7289
-0.0880517 0.305583 0.515701 0.0255087 0.355983 0.934144
-0.374996 -0.293464 -0.284633 -0.998855 -0.0474992 -0.00578801
-0.308867 0.271862 0.232803 0.865567 -0.500177 -0.0248269
-0.30874 0.286282 -0.685047 0.994379 -0.105842 -0.00284452
-0.34708 -0.25571 0.0725745 -0.0638459 -0.00179399 0.997958
0.218629 0.154095 -0.180783 1.07524e-016 8.08305e-017 -1
0.0344458 0.00983387 0.0725745 0 -0 1
-0.340118 0.321349 -0.365181 0.0331239 0.999451 0.00016172
-0.374938 0.0694051 -0.0240515 -1 1.81952e-005 0.00096036
0.200512 0.321323 -0.179477 -0.00299401 0.857172 -0.515022
-0.269093 -0.180425 0.0725745 0 0 1
-0.0219914 0.189838 -0.180783 -0 0 -1
0.378092 -0.300362 -0.551177 0.985982 -0.161429 -0.0421857
-0.327446 0.321349 0.231301 0.29464 0.955275 -0.0252512
-0.283525 -0.033619 0.0725745 0 -0 1
0.100657 -0.133301 0.0725745 -4.20867e-017 -8.51825e-017 1
-0.30874 -0.279597 -0.585332 0.969673 0.240374 0.0442043
-0.144627 -0.324539 -0.139622 -5.24911e-006 -1 -7.21207e-005
-0.124832 -0.245141 0.0725745 2.38408e-017 5.21336e-017 1
0.206524 0.321349 0.859354 0.011786 0.908084 0.418623
-0.154952 0.00116941 -0.180783 -2.97145e-016 3.4655e-017 -1
-0.20194 0.301477 0.0725745 -0.0259392 0.252909 0.967142
0.340865 -0.324539 -0.204187 -0.118432 -0.992418 -0.0328572
-0.365832 -0.260024 -0.727106 -0.467449 0.883952 0.0109633
-0.331676 -0.260024 -0.38511 0.139764 0.990169 -0.00562273
0.316927 0.26003 0.84495 0.00601446 -0.99638 0.0847946
0.290531 0.26003 0.805912 -0.0542614 -0.925211 -0.375552
-0.132279 -0.259281 -0.180783 -1.40332e-016 2.32568e-016 -1
-0.356553 0.321349 0.273948 -0.120985 0.992639 0.00550531
-0.345603 -0.168261 -0.180783 -0.0411529 -0.000830597 -0.999153
0.378092 -0.27772 -0.0679564 1 -2.62658e-006 0.00013266
0.378092 0.278419 -0.601072 0.975416 -0.219244 -0.0222481
0.378064 -0.0946551 -0.016457 0.999999 6.96049e-006 0.00102791
0.0941152 -0.0862741 0.0725745 -1.0672e-016 2.5059e-017 1
0.147924 0.294868 0.0725745 0.0381625 0.140597 0.989331
-0.333721 0.26003 -0.320292 0.103315 -0.994363 0.0238402
0.378092 0.286482 0.813242 0.998584 -0.0531529 0.00204338
0.268697 -0.324523 -0.0621203 -9.46735e-006 -1 0.000649244
0.33176 -0.260024 -0.677481 -0.388062 0.921629 0.00273289
0.0841316 -0.0468219 -0.180783 1.14132e-016 -1.27756e-016 -1
0.210464 -0.0968637 -0.180783 -0 0 -1
-0.312806 0.321349 -0.0924623 0.000113167 1 0.000107492
-0.338071 -0.324427 0.00708173 -4.63432e-005 -0.999996 0.00274015
-0.0798495 -0.136809 0.0725745 0 -0 1
-0.374996 0.285859 -0.0521324 -1 -0.000198797 5.67371e-005
0.0540218 0.0675733 0.0725745 3.18807e-017 6.72764e-017 1
0.33492 0.26003 -0.349058 -0.290699 -0.95491 0.0603394
-0.293373 -0.224386 -0.180783 7.34116e-005 0.000108536 -1
0.377972 0.25304 -0.180444 0.882011 -0.259921 -0.393061
-0.374962 0.168156 -0.0559898 -1 -1.92007e-006 0.00075878
-0.374996 -0.207104 -0.104878 -1 2.24774e-005 0.000300885
0.332561 0.321349 -0.357538 -0.348482 0.936921 -0.0271967
-0.329517 0.26003 0.369915 0.205908 -0.978571 -0.000855141
-0.0577536 -0.0283709 -0.180783 -0 0 -1
0.284785 -0.10989 -0.180783 6.09675e-017 2.01697e-016 -1
0.0670016 0.321175 0.0165228 3.3193e-006 0.999991 0.00432011
-0.316719 0.205362 0.0725745 -5.05672e-006 -2.5328e-005 1
-0.374926 -0.0524087 -0.0081234 -0.999999 -1.15414e-006 0.00170018
-0.00824685 0.0299956 -0.180783 -1.24056e-016 2.29453e-017 -1
-0.374996 -0.286779 -0.314855 -0.992934 0.109175 0.0465154
0.339254 0.26003 0.636104 -0.162134 -0.986542 0.0211547
0.115745 0.26003 0.828595 -0.00103136 -0.999948 -0.0100999
0.367045 0.321349 0.300156 0.421018 0.906929 0.014956
0.362567 0.321349 0.546937 0.358399 0.933563 0.00318958
-0.374273 -0.0171106 0.0606741 -0.878607 -0.00234786 0.47754
-0.100971 -0.323241 0.0661076 0.00114899 -0.746018 0.665924
0.0669273 0.265077 0.795061 0.0245795 -0.549579 -0.83508
0.185565 -0.291161 0.0725745 0.00611242 -0.0200047 0.999781
-0.362036 -0.324539 -0.370099 -0.392278 -0.916903 0.0735344
0.31172 -0.317786 0.0725745 -0.0163917 -0.641137 0.767251
-0.374996 -0.190732 -0.159507 -0.975332 0.0374787 -0.217537
-0.360849 0.26003 -0.692068 -0.369576 -0.9292 0.000814957
-0.185021 0.124141 0.0725745 2.4912e-017 2.63297e-017 1
0.3347 0.321349 0.243952 -0.286049 0.957912 0.0241004
0.31761 0.268405 -0.795426 -0.847551 -0.530606 0.0107173
-0.309397 0.260066 -0.741426 0.760282 -0.649592 0.00115591
0.100539 -0.0760861 0.0725745 -8.57463e-017 -3.29157e-017 1
-0.111546 -0.152424 0.0725745 -6.36471e-017 3.9389e-017 1
-0.148849 0.248021 0.0725745 5.23417e-017 -2.5703e-017 1
-0.337026 -0.241192 0.0725745 2.75628e-017 4.93359e-017 1
-0.342716 -0.140125 0.0725745 -0.0283966 0.00667768 0.999574
-0.30874 -0.321543 -0.336523 0.879133 -0.476046 -0.0224845
0.173995 0.180856 -0.180783 7.40692e-017 1.14228e-016 -1
0.378092 -0.181861 -0.0549744 1 2.38818e-006 0.000337087
-0.30874 -0.29788 -0.464132 0.999241 -0.0389367 0.00113834
0.350384 0.26003 0.818273 0.0966195 -0.995267 -0.0104251
-0.000739341 -0.243943 0.0725745 -3.88515e-017 1.34912e-016 1
-0.117065 0.321349 0.836368 1.895e-006 1 8.56405e-006
-0.336235 0.321349 -0.819354 0.104808 0.994493 -4.4425e-005
-0.0548897 -0.227038 0.0725745 5.68216e-018 8.89708e-017 1
-0.374996 0.271506 0.826296 -0.906103 -0.423055 -0.000956723
-0.0426871 0.273276 0.871583 0.0351328 -0.439531 0.89754
0.194867 0.042422 -0.180783 -3.72499e-017 3.16482e-017 -1
-0.20178 -0.17808 -0.180783 -0 -0 -1
0.0152741 -0.30084 0.0725745 0.0111866 -0.19573 0.980594
0.102514 -0.218598 -0.180783 3.0988e-018 1.05032e-016 -1
-0.362062 0.26003 0.273812 -0.458236 -0.888747 -0.0121677
0.113351 0.320894 0.0553927 0.00907485 0.954864 0.296903
0.099036 -0.174518 0.0725745 -3.59608e-017 7.36704e-017 1
-0.327342 -0.138909 0.0725745 -0 0 1
-0.343669 -0.324539 -0.525205 -0.00326163 -0.999993 0.00181796
-0.359148 -0.324539 -0.447521 -0.351428 -0.93616 -0.0101094
-0.30874 0.274964 0.60972 0.931497 -0.363349 0.017043
-0.189136 0.261179 0.0725745 8.92817e-018 -2.03784e-017 1
0.378092 0.286412 -0.177887 0.999272 -0.0263924 -0.0275608
-0.202345 0.321349 0.46559 -0.00654824 0.990876 -0.134615
0.308982 0.321175 0.0199475 -0.00419256 0.999984 0.00371715
-0.374832 -0.0218283 0.0272517 -0.999987 -0.000349967 0.00515885
-0.373787 0.26005 -0.788846 -0.589962 -0.807163 0.0208074
-0.327909 0.321349 -0.351189 0.210089 0.977679 0.00245474
0.376869 -0.324517 -0.420169 0.46734 -0.88315 0.0404826
-0.176217 0.321329 -0.0544817 -6.98396e-006 1 0.00092163
-0.261913 0.305931 0.0725745 -0.0201967 0.416223 0.909038
-0.355105 0.26003 0.425867 -0.17706 -0.984145 -0.0103663
-0.146738 0.174724 0.0725745 -5.6528e-017 3.64098e-017 1
0.0934251 0.11703 0.0725745 1.29432e-017 -7.8355e-017 1
0.340376 0.26003 0.378715 -0.211298 -0.977365 0.0105762
0.378092 0.307211 -0.0230741 0.92547 0.371104 0.0760714
-0.308875 0.271037 0.108947 0.863032 -0.50476 -0.0198017
0.378092 -0.147557 -0.126327 1 0 0
-0.317879 0.26003 -0.565503 0.545372 -0.838172 -0.00612536
-0.104192 0.112916 -0.180783 1.39035e-017 1.09134e-016 -1
-0.129519 0.278373 0.794945 0.0316278 -0.273827 -0.961259
-0.202137 0.260482 0.499741 -0.00137482 -0.920194 0.39146
0.118928 -0.324485 -0.0239894 -2.10446e-005 -0.999999 0.00135476
0.358221 -0.324539 -0.542777 0.211907 -0.976942 -0.026077
-0.374996 -0.278377 -0.427751 -0.960976 0.272907 0.0452395
-0.0473128 0.321309 0.473605 0.00210943 0.998914 -0.0465542
-0.17351 0.311559 -0.180783 -0.00391405 0.473261 -0.880914
0.264699 0.283556 0.871583 0.0303732 -0.116347 0.992744
-0.327486 0.321349 0.334478 0.300931 0.95345 -0.019338
-0.339275 0.26003 0.807422 1.36247e-016 -1 3.8765e-016
-0.0652286 0.227653 0.0725745 -4.78399e-020 5.78053e-017 1
-0.341472 -0.324539 -0.152892 -0.0238066 -0.999717 0.000335334
0.377876 -0.166329 0.0562799 0.948584 -0.00648341 0.31646
0.37351 -0.260024 -0.232959 0.666963 0.745049 0.00795716
0.0278509 -0.0923441 -0.180783 6.43233e-017 -1.60355e-016 -1
-0.00807476 0.0826094 -0.180783 1.4253e-016 2.21016e-016 -1
0.353192 -0.324539 -0.249801 0.0599862 -0.998198 -0.0012645
-0.0438423 0.12327 0.0725745 -7.5589e-017 -2.30023e-017 1
0.346677 0.321349 0.103774 -0.036104 0.999315 0.0080759
-0.0435045 0.303151 0.871583 0.0471445 0.271662 0.961237
0.378092 0.262191 0.359499 0.871212 -0.490567 -0.0182556
0.378092 -0.303989 -0.228876 0.98669 -0.16219 0.011695
0.252574 -0.0909237 -0.180783 -1.52694e-016 1.69373e-016 -1
-0.342503 0.26003 0.452103 -0.0605461 -0.998139 0.00722852
-0.321622 0.26003 -0.689553 0.429434 -0.903087 -0.00447623
-0.293946 -0.324539 -0.130475 2.05656e-016 -1 4.33558e-016
0.332597 0.321349 0.411627 -0.365903 0.930553 0.0136622
-0.149609 -0.324387 0.0209629 7.1051e-005 -0.999992 0.00399225
0.378092 -0.106995 -0.064079 1 4.89795e-006 0.000178881
-0.227958 -0.028399 0.0725745 -0 0 1
0.378068 -0.318423 -0.0207829 0.755434 -0.655034 0.0157724
-0.130789 -0.324479 -0.0188783 2.87195e-005 -0.999999 0.00152971
0.0974775 -0.0522471 -0.180783 0 -0 -1
-0.374996 0.271211 -0.680361 -0.881935 -0.47137 0.00144607
-0.267091 0.321349 0.832721 -2.02207e-005 1 5.56584e-005
0.192974 -0.324539 -0.103025 3.30129e-006 -1 0.000180401
-0.327546 0.321349 0.422738 0.249813 0.96806 -0.0212884
-0.0725321 0.260122 0.482573 -0.00478275 -0.999242 0.0386217
0.272111 0.0032801 0.0725745 -1.07697e-016 -4.29903e-017 1
0.147248 0.260464 0.499252 -0.0181333 -0.957148 0.289031
0.378092 0.308793 0.116361 0.894489 0.446904 0.0128698
0.253616 0.00300101 0.0725745 -5.73467e-017 1.12059e-016 1
-0.347304 0.321349 -0.580585 -0.128458 0.989976 -0.0587036
0.13584 -0.324539 -0.156728 -0.0307323 -0.99276 -0.11612
0.338019 0.107462 -0.180783 6.58965e-017 -1.22508e-016 -1
0.173362 0.182739 0.0725745 -5.96341e-017 -6.66264e-017 1
0.0678832 -0.324529 -0.169439 -0.0492046 -0.853179 -0.519292
0.368888 0.0720421 -0.180783 0.551451 0.0201996 -0.833963
-0.180417 0.203678 -0.180783 -0 0 -1
-0.20018 0.179934 0.0725745 -5.2457e-018 -1.19145e-016 1
-0.30874 -0.291872 -0.844966 0.991067 0.0381138 -0.127805
-0.169473 0.249075 0.0725745 3.02441e-017 -1.75954e-017 1
-0.212373 0.296502 0.794712 0.0161786 0.0658859 -0.997696
0.378092 0.27745 -0.583277 0.961418 -0.273927 -0.0252791
-0.0108502 -0.154351 -0.180783 -0 -0 -1
-0.0806548 0.286629 -0.180783 1.29303e-016 -1.94719e-017 -1
0.0832942 -0.262381 -0.180783 -2.50097e-017 -1.22224e-016 -1
-0.259989 -0.167229 -0.180783 3.10364e-017 6.82123e-018 -1
0.14044 0.262761 -0.180783 1.1825e-016 -2.56373e-017 -1
0.151881 0.198182 -0.180783 -9.29958e-017 3.49663e-016 -1
0.378092 0.292863 0.862997 0.819282 0.0342152 0.572368
0.378086 -0.191749 -0.0451688 1 4.4778e-006 0.000532982
-0.374832 0.0350082 0.0272437 -0.999992 -1.84671e-005 0.00393952
-0.0156143 -0.10972 0.0725745 -6.41996e-019 -3.01757e-017 1
0.340506 -0.0925061 -0.180783 4.45155e-017 -8.06324e-017 -1
0.223119 0.321343 -0.0862758 -4.01927e-006 1 0.000331108
-0.102951 0.243443 0.0725745 -1.58741e-017 -1.04956e-016 1
-0.120732 0.178319 0.0725745 0 0 1
0.311876 0.265451 0.0726006 -0.337045 -0.229389 0.913116
0.00657016 0.301493 0.515711 0.00204294 0.279452 0.960157
-0.285893 -0.324491 -0.0288261 1.04756e-006 -0.999999 0.00126418
-0.244553 0.226069 0.0725745 -4.06241e-017 3.87454e-017 1
-0.325127 0.321349 -0.696063 0.249417 0.968366 -0.00762423
-0.369783 -0.319642 0.0725745 -0.504494 -0.571498 0.647206
0.109469 0.260274 0.493518 0.021177 -0.985718 0.167064
0.365543 0.321349 0.164929 0.394011 0.918879 -0.0203919
-0.293075 0.241574 0.0725745 0.0487933 -0.01929 0.998623
-0.166046 -0.291485 -0.180783 -0.000515566 -0.00938808 -0.999956
-0.241892 -0.171365 -0.180783 1.01836e-016 -2.38987e-016 -1
-0.290135 -0.318076 0.0725745 0.00486524 -0.639333 0.768915
-0.100878 -0.0527029 -0.180783 4.82981e-017 -1.28925e-016 -1
-0.150217 -0.0674528 0.0725745 -0 0 1
0.194839 -0.260715 -0.180783 -0 -0 -1
-0.33029 0.321349 -0.417922 0.217944 0.975774 -0.019109
-0.30874 0.279174 -0.259328 0.947955 -0.318292 0.00847198
-0.374996 0.286116 0.157032 -0.998645 -0.0509871 -0.0104103
-0.30874 0.279433 -0.700648 0.969341 -0.241285 -0.0464785
-0.072397 0.0653535 0.0725745 0 -0 1
-0.341726 0.26003 -0.729092 -0.0103449 -0.999938 -0.00419136
0.31761 0.276302 -0.634172 -0.957685 -0.287681 -0.00891147
-0.312702 -0.324539 -0.155592 0.011224 -0.998764 -0.0484147
0.126674 0.321349 0.457468 -0.00542231 0.947909 -0.318494
0.158099 -0.0890763 0.0725745 1.10161e-016 1.26799e-016 1
-0.350118 -0.260024 -0.776916 -0.107572 0.993816 -0.0275314
-0.335522 -0.324539 -0.119009 -3.78024e-006 -1 3.07828e-005
0.378092 0.160939 -0.0752625 1 -3.23911e-006 7.87663e-005
-0.342221 0.26003 0.728032 -0.0300889 -0.999545 -0.00228466
-0.31691 -0.260024 -0.625223 0.598334 0.801242 0.0028116
-0.346034 0.321349 -0.449562 -0.0657391 0.997735 0.0142277
0.31761 0.271876 0.61714 -0.863105 -0.504073 -0.0309899
0.255977 -0.102531 0.0725745 1.03131e-016 -3.03292e-018 1
0.204299 0.0302722 0.0725745 4.26474e-017 -2.42728e-017 1
0.32183 -0.16298 0.0725745 2.44181e-017 9.59011e-017 1
-0.208173 0.160459 -0.180783 -0 0 -1
-0.211704 0.270981 -0.180783 1.64325e-017 1.19196e-016 -1
0.154751 0.26003 0.858423 -0.0116132 -0.918443 0.395384
0.31761 -0.282273 -0.536118 -0.990838 0.135039 0.00193667
-0.197325 -0.324517 -0.0512171 6.4515e-006 -1 0.00081319
0.303253 0.0364462 0.0725745 5.99717e-017 -7.65989e-017 1
0.217107 0.1681 0.0725745 5.75012e-017 6.99534e-017 1
-0.322357 -0.324539 -0.65597 0.355465 -0.934234 0.0291911
0.378092 0.180708 -0.084982 1 0 0
-0.360674 0.321349 0.588048 -0.323515 0.946125 -0.0135905
-0.37499 -0.164466 -0.0919076 -1 -2.99881e-006 0.000525889
-0.341025 0.232624 -0.180793 -0.00412375 -0.0972605 -0.99525
-0.30874 0.319046 -0.425094 0.66892 0.743114 -0.0181087
0.155553 -0.123802 -0.180783 7.19152e-017 1.78773e-016 -1
0.0605236 0.26003 0.466833 -0.00314888 -0.993406 -0.114605
0.378092 0.284215 0.595332 0.994443 -0.10527 -0.00106651
-0.363989 0.26003 -0.706889 -0.45335 -0.891266 0.0108808
-0.0822915 0.321349 -0.102656 -7.23167e-006 1 0.000167256
-0.171505 0.193861 -0.180783 5.75284e-017 -1.37377e-016 -1
0.290042 0.277634 0.871583 -0.0289947 -0.294716 0.955145
0.00980524 -0.324539 -0.122059 -6.42143e-007 -1 2.92127e-005
-0.30874 0.283889 -0.318588 0.984008 -0.176268 0.0256588
0.288308 0.162369 -0.180783 -0 0 -1
-0.374996 0.269945 -0.695873 -0.903889 -0.426305 0.0353386
0.37799 -0.0744018 0.0297551 0.999987 0.00015818 0.0051822
0.228439 0.0157411 0.0725745 -7.89195e-017 4.57545e-017 1
0.317622 0.263374 -0.812274 -0.778609 -0.627482 -0.00581378
0.378092 0.302863 0.259896 0.957342 0.287565 0.0283382
0.0405996 0.125521 0.0725745 -4.28658e-017 -3.12087e-017 1
0.378068 -0.0524616 -0.0203483 1 -3.45146e-006 0.000955163
0.172049 -0.31104 -0.180783 0.0164381 -0.418488 -0.908073
0.212853 -0.261546 -0.180783 6.33486e-017 2.43212e-017 -1
-0.0870194 0.321349 0.461007 -0.0465633 0.952422 -0.301203
0.0662612 0.321307 -0.0386818 -9.14063e-006 0.999999 0.00134327
0.0105619 0.20275 0.0725745 0 0 1
0.0609172 0.26014 0.483917 0.00307216 -0.999074 0.0429267
-0.33766 0.321349 -0.745197 0.0540737 0.998515 0.00669123
-0.122551 0.321349 0.452598 -0.0644314 0.807895 -0.585794
0.244701 0.32101 0.0436945 -0.00342806 0.995665 0.0929537
-0.374996 0.299186 0.771814 -0.994529 0.101698 -0.0238587
0.377574 -0.273991 0.0602555 0.866306 -0.0393309 0.497962
-0.308915 0.26059 0.657882 0.662774 -0.74877 0.00861454
0.208984 0.066331 -0.180783 -0 0 -1
-0.144968 -0.146524 -0.180783 -1.79477e-016 -1.69069e-016 -1
0.257219 0.27898 0.515731 -0.0195285 -0.266929 0.963518
-0.374996 0.291672 0.731198 -0.999744 0.0226171 0.000247337
0.378092 -0.289851 -0.774168 0.999054 0.0433271 -0.00364983
0.31761 -0.299408 -0.560315 -0.992599 -0.11585 -0.036407
-0.0532702 0.211528 0.0725745 0 0 1
0.211748 0.26003 0.838325 -3.15664e-005 -1 0.000222501
0.148923 -0.324429 0.00641676 -3.91764e-005 -0.999997 0.00253842
0.365933 0.321349 -0.228143 0.443952 0.89605 -0.00112108
0.204201 0.0871998 -0.180783 -0 -0 -1
0.351548 0.0729818 0.0725745 0.150358 0.0315402 0.988128
0.0725883 -0.124619 0.0725745 1.20076e-017 -1.32736e-016 1
0.374716 -0.260034 -0.555493 0.732138 0.679901 0.0413236
0.21214 0.321231 0.000909159 9.49545e-006 0.999996 0.00287593
0.378092 0.279222 0.35198 0.970959 -0.220727 0.0922914
-0.347578 0.13965 0.0725745 -0.100567 0.0196263 0.994737
0.306523 0.21813 0.0725745 -6.91075e-005 -6.55504e-005 1
0.185881 0.00760572 -0.180783 -1.72437e-016 -2.45248e-017 -1
0.378092 -0.241356 -0.12974 1 0 0
-0.374996 -0.0290361 -0.104419 -1 1.21131e-005 0.000294728
0.377714 0.129123 0.0586833 0.918286 -0.0298244 0.394793
-0.053564 -0.324525 -0.0691941 4.21207e-006 -1 0.000518432
-0.374944 -0.175199 -0.0315338 -1 -2.1744e-007 0.000763274
0.332393 0.321349 -0.433702 -0.384854 0.921761 -0.0473655
0.0315654 0.300073 0.515713 -0.0219511 0.255286 0.966616
-0.27069 0.321345 -0.0913148 -1.65318e-005 1 0.000301728
0.065247 -0.171526 -0.180783 3.77596e-017 -3.11152e-018 -1
-0.0528482 0.320626 0.502357 -0.059223 0.897144 0.437751
-0.374988 0.0200526 -0.0886391 -1 1.07454e-006 0.000582092
-0.362719 -0.324539 -0.721527 -0.475221 -0.878103 0.0556834
0.0886943 0.17898 0.0725745 5.76975e-017 -6.42098e-017 1
-0.162672 -0.138722 0.0725745 2.44445e-017 9.34937e-017 1
0.366092 0.26003 0.351137 0.377375 -0.925758 0.0236768
-0.361073 0.26003 -0.468776 -0.40365 -0.913078 -0.0579255
-0.0379936 0.321289 -0.0271117 -1.34978e-005 0.999999 0.00167138
-0.362737 0.26003 0.787564 -0.447248 -0.894407 0.00237706
-0.0332262 0.321349 0.826687 -2.9248e-005 1 -0.000471565
0.0280678 0.113615 0.0725745 1.90368e-017 -8.75797e-017 1
-0.0119186 -0.0378339 -0.180783 0 -0 -1
0.108865 0.26003 0.851743 0.0132512 -0.982173 0.18751
0.348085 -0.274203 -0.869226 -0.00200487 0.344452 -0.938802
0.329291 0.321349 0.380724 -0.483664 0.874816 0.0276662
-0.346667 -0.205021 -0.180783 -0.0960622 0.0154974 -0.995255
0.31761 0.308269 0.0946852 -0.913806 0.397541 0.0831882
-0.0403108 -0.324205 0.0515534 0.010237 -0.968053 0.250536
0.231261 0.321349 0.814448 -0.00707412 0.977336 -0.211577
0.109129 0.286394 -0.180783 -0.000363677 0.00142487 -0.999999
0.335892 -0.260024 -0.533901 -0.260071 0.965486 -0.0141415
-0.31829 0.0488958 -0.180783 1.36994e-016 -6.79035e-017 -1
-0.30874 -0.304852 -0.799966 0.978532 -0.205935 0.00807163
0.368739 -0.278129 0.0725745 0.507384 -0.0114171 0.861645
-0.357716 0.321349 0.0297772 -0.197861 0.980217 -0.00498385
-0.0727394 0.321349 0.466535 0.00508416 0.994928 -0.100459
-0.374996 0.283759 0.753753 -0.994915 -0.100184 0.0103313
-0.0483961 -0.305355 0.0725745 0.0154632 -0.268793 0.963074
0.333979 0.321349 0.0233322 -0.00393226 0.999992 0.000997284
0.343152 0.26003 -0.249466 -0.158404 -0.986494 0.0416862
0.357616 0.321349 -0.670853 0.172323 0.985037 0.00263995
-0.374996 0.288657 -0.202759 -0.99841 -0.0533559 0.0181976
0.353923 -0.260024 -0.314959 0.136671 0.990424 -0.0195151
-0.244674 0.087782 0.0725745 6.08632e-017 8.57271e-017 1
0.227057 -0.310406 0.0725745 -0.0143413 -0.416115 0.909199
0.352413 0.321349 0.699021 0.119057 0.992774 -0.0150272
-0.260111 0.293714 0.515689 -0.0175039 0.112356 0.993514
0.253333 0.279733 0.44301 -0.024159 -0.207679 -0.977899
0.202272 0.260643 0.50457 0.0240442 -0.85781 0.513404
0.370161 0.26003 0.296499 0.431968 -0.901873 -0.0053674
-0.318075 -0.324525 -0.0670451 4.04245e-006 -1 0.000555582
-0.115936 0.321349 -0.158782 -0.00458657 0.987552 -0.157226
-0.374996 -0.300159 -0.657845 -0.996292 -0.083761 -0.0196695
-0.0460664 -0.15461 0.0725745 4.53599e-017 5.28158e-018 1
0.318986 0.262737 0.335355 -0.748172 -0.663493 0.00401017
0.351031 0.26003 0.176999 0.0737352 -0.997248 -0.00776734
-0.132346 0.312997 0.0725745 0.0243059 0.563579 0.825704
-0.35182 0.321349 0.612223 -0.1308 0.991218 -0.019448
-0.0200403 0.289873 -0.180783 5.71063e-005 0.000189386 -1
-0.30874 0.290244 0.193875 0.998741 -0.0499734 0.00440065
-0.182573 -0.215526 0.0725745 -4.98566e-017 8.64888e-017 1
0.0370821 0.310534 0.871583 -0.00845256 0.514473 0.857465
0.210918 0.287586 -0.180783 -0.000822304 0.0037515 -0.999993
-0.36194 -0.260024 -0.635167 -0.436816 0.899523 0.00710137
0.203082 -0.324257 0.0451605 -0.040362 -0.990734 0.129682
-0.090414 0.23255 0.0725745 6.26724e-017 7.55226e-017 1
0.0638679 0.266176 0.0725745 8.3337e-017 -4.87939e-017 1
-0.374996 0.276805 -0.131134 -1 -0 -0
0.308504 -0.105362 0.0725745 -8.70237e-018 -8.7697e-017 1
0.0606957 -0.169762 0.0725745 6.06774e-017 2.80999e-017 1
0.347123 -0.259996 0.0725745 0.055878 -0.000963992 0.998437
0.0870792 -0.324539 -0.143681 -5.00745e-006 -1 -0.000169227
0.357129 0.321349 0.666426 0.179984 0.983014 -0.0359054
-0.222024 -0.324525 -0.172101 0.00821323 -0.830227 -0.557365
0.24953 -0.163586 0.0725745 4.55731e-017 -1.4811e-016 1
0.378092 -0.277486 -0.474338 0.968356 0.249183 0.0139617
0.346258 0.26003 0.141913 -0.0637639 -0.997645 -0.0252801
-0.164872 -0.324539 -0.13994 5.86166e-006 -1 -2.55509e-005
-0.105886 -0.153834 -0.180783 -4.12265e-017 3.65899e-017 -1
0.350346 0.321349 -0.793785 0.0650869 0.997875 -0.00293754
0.378092 -0.100545 -0.174624 0.743914 -0.00269817 -0.66827
-0.374996 -0.310882 -0.476627 -0.927423 -0.373228 -0.024252
-0.37499 0.131168 -0.0923282 -1 -1.24226e-006 0.000521593
-0.374986 0.317996 -0.440944 -0.628123 0.778086 -0.00659759
0.378092 -0.320714 -0.235463 0.732811 -0.679936 0.0259939
-0.148494 0.00632125 0.0725745 -2.30436e-017 -1.39511e-016 1
-0.0104803 -0.251085 0.0725745 4.47865e-017 1.53679e-016 1
0.117008 0.302837 0.871583 0.0208804 0.33391 0.942374
0.378042 -0.237168 0.00142384 0.999999 1.18897e-005 0.00152876
-0.229368 0.260811 0.506414 -0.000612169 -0.826612 0.562772
0.149629 0.254198 -0.180783 0 -0 -1
0.377441 0.184708 0.0617415 0.824949 -0.0273751 0.564544
-0.30874 0.310464 -0.460635 0.874715 0.484127 0.0222465
0.245172 -0.158047 -0.180783 1.99576e-016 -8.05226e-017 -1
-0.374812 -0.141864 0.0336125 -0.999963 -0.00125445 0.00856641
-0.374996 -0.301215 -0.349182 -0.985875 -0.164416 -0.0318933
0.203442 -0.0270581 -0.180783 5.33904e-017 6.0193e-017 -1
0.378092 0.31343 -0.627697 0.842641 0.538476 -0.000274749
0.332096 -0.0764456 -0.180783 1.38025e-016 9.6821e-017 -1
0.269287 0.311217 0.871583 0.00294637 0.396071 0.918215
-0.0267502 0.319739 0.0679281 -0.00747498 0.759144 0.65088
-0.256242 -0.251512 -0.180783 3.41887e-005 3.28742e-005 -1
-0.0359346 -0.0211072 0.0725745 -5.35033e-018 -8.248e-017 1
-0.362667 0.26003 -0.782303 -0.47027 -0.882398 0.0148195
0.130426 0.321349 0.813767 -0.0306975 0.976051 -0.215366
0.0626063 0.320828 0.497887 0.007054 0.969276 0.245874
0.35885 0.321349 -0.480074 0.235214 0.971413 0.0321201
-0.30874 0.279082 0.687307 0.956768 -0.289469 -0.028345
-0.325043 0.0875555 0.0725745 -4.68945e-017 3.61195e-017 1
0.334506 0.26003 0.1007 -0.391044 -0.920344 0.00716436
0.221597 0.321349 -0.121773 -5.9132e-007 1 4.08641e-005
-0.109664 -0.101524 0.0725745 -4.26435e-017 -7.41591e-018 1
-0.249979 0.320962 0.494874 9.00565e-005 0.979284 0.202494
-0.105715 0.289146 0.442892 0.00484488 -0.0680713 -0.997669
0.353516 0.260018 -0.208796 0.136915 -0.990372 -0.0204203
-0.185634 -0.242043 -0.180783 -0 0 -1
0.366244 0.185741 -0.180783 0.448597 0.0149167 -0.89361
0.111387 0.0505491 -0.180783 -8.88875e-017 2.27568e-017 -1
0.359645 0.0836124 0.0725745 0.28658 0.00920531 0.958012
-0.346807 -0.324539 -0.661742 -0.0387034 -0.999248 0.00252616
-0.285192 0.267728 0.0725806 0.131884 -0.0401454 0.990452
-0.0212238 0.124278 0.0725745 -1.2345e-016 2.9758e-017 1
0.101495 0.0075656 0.0725745 0 -0 1
0.342487 -0.179697 0.0725745 0.00571297 0.00183037 0.999982
0.377964 -0.260372 -0.746888 0.595634 0.802867 0.0249775
-0.312117 0.26003 0.467002 -0.00638817 -0.987967 -0.15453
0.120005 0.224991 -0.180783 -0 0 -1
0.0113629 0.277927 -0.180783 4.3558e-017 -1.19976e-016 -1
-0.35896 0.26003 0.843374 -0.29087 -0.956704 0.010585
0.307102 0.26003 0.85532 -0.0103341 -0.951822 0.306477
0.0542014 0.264884 0.443489 0.00632568 -0.640542 -0.767897
-0.374996 0.299777 -0.643529 -0.983018 0.176921 0.0487356
-0.23613 -0.215388 -0.180783 2.00369e-016 -1.26907e-016 -1
0.169545 -0.324521 -0.174823 0.0249518 -0.891503 -0.452326
0.31761 -0.275032 -0.310505 -0.951141 0.308306 -0.0166725
0.31761 0.285972 0.748368 -0.995107 -0.0970922 -0.0183271
0.335433 0.321349 0.499435 -0.0293446 0.998872 0.0373319
0.37329 0.321349 0.554253 0.637615 0.769857 -0.0277076
0.358806 -0.260024 -0.243105 0.157875 0.98743 0.00752646
-0.166189 0.321349 0.860666 0.000778567 0.892075 0.451887
0.31761 0.308449 0.540996 -0.907466 0.419017 0.03051
0.110424 0.16306 0.0725745 1.03462e-016 -6.98728e-018 1
0.353486 0.214785 -0.180783 0.111542 0.0216551 -0.993524
0.317727 0.271363 -0.863308 -0.744265 -0.415364 -0.523013
-0.245641 0.270859 -0.180783 6.61676e-005 5.5164e-006 -1
0.377441 -0.114626 0.0617275 0.864892 -0.0308826 0.501006
-0.37499 -0.265031 -0.250634 -0.758217 0.651398 0.0280772
0.347965 0.321349 0.239474 -0.0323942 0.999439 0.00845062
-0.285929 0.0138894 0.0725745 0 0 1
-0.307513 -0.163268 -0.180783 0 -0 -1
0.31761 -0.289737 -0.553394 -0.999894 0.0145346 -0.000752838
-0.332071 0.321349 0.767617 0.104662 0.994489 0.00603517
0.0213931 0.2242 0.0725745 -5.12478e-017 -2.26233e-017 1
0.156429 0.0286465 -0.180783 0 -0 -1
0.218577 0.297428 -0.180783 0.00184654 0.111155 -0.993801
0.250325 -0.254334 0.0725745 4.54895e-017 9.10173e-018 1
-0.0947462 0.237512 -0.180783 0 -0 -1
-0.373927 0.253731 0.0650481 -0.953577 -0.169926 0.248628
-0.0706559 -0.0741344 -0.180783 -1.68005e-017 -4.95738e-017 -1
0.107932 0.290031 0.515717 -0.00722262 -0.0237418 0.999692
-0.179385 -0.0786391 -0.180783 -0 0 -1
-0.343681 0.26003 -0.531792 -0.0111782 -0.999937 0.000704104
0.378092 0.291321 -0.395889 0.999415 0.027289 0.020616
-0.308672 0.296879 -0.182896 0.793388 0.148177 -0.590406
0.273694 0.117924 0.0725745 -2.14752e-017 4.16477e-018 1
-0.374996 0.291431 -0.16845 -0.99802 0.058205 0.0238225
0.306345 0.28368 -0.180805 -0.386602 -0.0342874 -0.921609
-0.30874 0.314874 -0.61586 0.864814 0.502086 0.002551
-0.308895 0.186948 -0.180783 -3.29861e-016 4.71605e-017 -1
0.31761 0.297065 -0.57558 -0.993352 0.11234 -0.0251088
0.378092 -0.274576 -0.0810846 1 0 0
0.378092 0.265341 0.50766 0.70695 -0.707242 0.00542627
-0.374996 0.264286 0.686402 -0.763957 -0.645143 0.0126754
0.216628 0.0181816 0.0725745 -4.59149e-017 4.55658e-017 1
-0.203651 0.231925 -0.180783 1.45357e-016 1.59401e-016 -1
0.326893 -0.260024 -0.432656 -0.583402 0.812153 -0.00703932
0.195517 0.0543582 -0.180783 -0 0 -1
-0.320827 -0.260024 -0.53925 0.436862 0.899368 0.0170262
0.31761 -0.282335 -0.266386 -0.989908 0.140854 -0.0155611
-0.332463 0.26003 0.519164 0.137091 -0.990494 -0.0113038
0.377996 -0.305685 0.0264125 0.965008 -0.259956 0.0343842
0.377982 0.0441264 0.0337146 0.999922 -0.00258042 0.0121909
0.00384956 -0.324539 -0.111821 4.95574e-007 -1 9.62649e-005
0.378068 -0.10946 -0.020829 1 3.10503e-005 0.000954206
0.31761 -0.288511 -0.407636 -0.999252 0.0385799 -0.00265693
0.235569 0.281181 -0.180783 -3.23963e-017 1.69553e-016 -1
0.0868511 0.321349 0.819136 -0.0269422 0.985536 -0.167309
-0.374996 -0.308451 -0.422454 -0.945219 -0.326399 0.00488233
0.222871 -0.202542 0.0725745 0 0 1
-0.374996 -0.178467 -0.111743 -1 1.31341e-005 0.000204268
0.353276 -0.260024 -0.553802 0.147735 0.988868 0.0177214
-0.374996 0.298595 0.0674454 -0.977245 0.211317 0.0183514
0.172449 0.292751 0.794903 -0.00912549 0.072225 -0.997347
-0.341992 0.321349 -0.116538 -0.00472874 0.999989 0.000407472
-0.0693631 0.0265202 -0.180783 1.17672e-016 2.1892e-016 -1
0.378026 0.180814 0.0105665 0.999998 -4.17092e-006 0.00186966
-0.170046 0.268738 0.443233 -0.00654486 -0.585115 -0.810924
-0.30874 0.281534 0.733025 0.981292 -0.18943 -0.0343867
0.365124 -0.324539 -0.824674 0.388779 -0.921309 -0.00631844
-0.207332 0.172662 -0.180783 -0 0 -1
0.368625 0.321349 0.262778 0.550934 0.833296 -0.0457239
-0.310827 0.260038 -0.270912 0.504918 -0.863111 -0.00984965
-0.145118 0.321313 -0.0429337 -1.85019e-005 0.999999 0.00127499
0.341349 -0.289547 0.0725745 0.00269213 -0.0138727 0.9999
-0.0716021 0.300592 0.871583 -0.0180398 0.171756 0.984974
-0.0354469 -0.248073 -0.180783 -0 -0 -1
-0.374828 0.211174 0.0281729 -0.999982 -0.00049685 0.00590789
-0.301881 -0.324487 -0.025842 3.15791e-005 -0.999999 0.00134397
-0.274251 -0.324519 -0.0550585 5.1213e-006 -1 0.000756283
-0.330837 0.198262 0.0725745 -0 0 1
-0.334702 -0.0309467 -0.180783 -4.13586e-017 -1.01738e-016 -1
-0.301332 -0.324539 -0.143794 3.55702e-005 -1 -0.000264558
0.234375 0.0977342 0.0725745 -2.63361e-017 2.92193e-017 1
-0.274865 -0.308142 -0.180789 0.0302576 -0.310358 -0.950138
-0.27125 0.321349 -0.135953 -5.6259e-017 1 -2.19104e-016
-0.31113 0.321345 -0.787261 0.694082 0.719884 -0.00416498
0.0524795 -0.240434 0.0725745 -3.4662e-017 3.45698e-017 1
-0.11492 0.296064 0.515699 0.0185529 0.165985 0.985954
0.37809 -0.262133 -0.813763 0.741279 0.671039 -0.0145819
0.352823 0.26003 -0.626329 0.0521952 -0.998633 0.00286705
0.320462 0.260729 0.437635 -0.424321 -0.844925 -0.325659
-0.35615 -0.324539 -0.156135 -0.225579 -0.974146 -0.0123777
0.175532 -0.0807117 -0.180783 -5.41349e-018 2.30458e-016 -1
0.096146 -0.324365 0.0287157 0.000297594 -0.99998 0.00633914
-0.352275 0.26003 0.328614 -0.163999 -0.986286 -0.0185489
0.378092 -0.293394 -0.734598 0.99951 -0.0246697 -0.0192729
0.378092 -0.0338678 -0.165822 0.957508 0.00244041 -0.288395
-0.374848 0.177231 0.0216499 -0.999994 -4.45601e-005 0.00357507
0.378092 0.0260293 -0.166745 0.948008 -0.0286174 -0.316957
0.0876905 0.0156453 -0.180783 -4.03825e-017 -5.56325e-017 -1
-0.00181608 -0.028415 0.0725745 8.6445e-017 1.31359e-017 1
-0.322389 0.321349 0.122564 0.387636 0.921681 0.0155665
-0.248192 -0.324539 -0.139536 -1.99029e-006 -1 -1.07091e-005
-0.117066 -0.324263 0.0444415 -0.00434026 -0.998944 0.0457458
-0.0106124 0.240529 -0.180783 -6.22204e-017 -7.07628e-017 -1
-0.374966 -0.10278 -0.0598732 -1 9.07818e-006 0.000755481
-0.286433 -0.0934548 -0.180783 4.84726e-017 1.42999e-016 -1
0.346388 0.26003 -0.263121 -0.0771083 -0.997022 -0.00127377
-0.164934 0.232137 0.0725745 -2.62913e-017 -4.16032e-017 1
0.177144 0.26003 0.462932 0.0215827 -0.974757 -0.222222
-0.365171 0.321349 -0.467485 -0.587477 0.807525 -0.0526715
-0.30874 0.308156 -0.365115 0.910525 0.412054 -0.0339807
0.362987 -0.298119 -0.869226 0.279944 -0.0386366 -0.959239
0.37793 -0.132221 0.0451085 0.997609 -0.00406945 0.0689898
-0.15567 0.024243 0.0725745 -3.21962e-017 -3.97647e-017 1
-0.354314 0.26003 0.60116 -0.181875 -0.983193 0.0158793
-0.0981118 -0.243407 0.0725745 -5.94505e-017 3.2275e-017 1
-0.362475 -0.26003 -0.829659 -0.330523 0.943538 -0.0221706
0.378092 0.293092 -0.267341 0.99644 0.0828816 0.0154028
0.37808 0.0226584 -0.0363886 1 -6.08591e-006 0.000665892
-0.374996 0.279106 -0.714711 -0.974737 -0.222863 -0.0148532
0.31761 -0.280694 -0.435714 -0.988385 0.149988 -0.0244599
0.31761 -0.285924 -0.229262 -0.993113 0.116926 -0.00738073
-0.224125 0.26003 0.461556 0.0259839 -0.973926 -0.225372
-0.0176059 -0.135057 -0.180783 7.94093e-017 -3.48561e-017 -1
0.339783 -0.238464 -0.180799 -0.0301324 0.212699 -0.976653
-0.321526 -0.0546262 -0.180783 -0 0 -1
0.3203 0.188716 0.0725745 0 -0 1
0.321934 0.206884 -0.180783 -2.44205e-006 -7.68368e-005 -1
0.275308 0.0899776 -0.180783 -0 0 -1
0.15952 0.0950603 -0.180783 -7.99773e-017 1.175e-016 -1
-0.271557 0.261185 0.510488 0.000540991 -0.729452 0.684032
0.273037 -0.324533 -0.084271 -1.07632e-005 -1 0.000368655
0.0605346 0.301756 0.871583 0.0527841 0.187488 0.980848
0.333056 0.26003 0.224267 -0.344052 -0.938744 -0.0196822
-0.114195 0.307291 -0.180783 -0.0316772 0.381748 -0.923723
0.378092 -0.0171023 -0.0765643 1 -8.91061e-008 9.05754e-006
-0.360009 -0.260024 -0.378177 -0.356033 0.934133 -0.0252244
0.209258 0.306754 -0.180783 0.0282639 0.294841 -0.955128
-0.372992 -0.324521 -0.147761 -0.82763 -0.561211 -0.00841379
0.343953 0.177649 0.0725745 0.0180027 -0.00257202 0.999835
0.376484 0.321343 0.0228496 0.65882 0.75211 -0.0169389
-0.0390397 0.238171 0.0725745 -0 0 1
-0.288795 0.288689 0.515705 0.241811 -0.0851287 0.966582
0.31761 -0.291569 -0.691155 -0.999969 0.0073297 -0.00298803
0.114555 0.27884 0.443006 -0.0132387 -0.250498 -0.968027
0.378092 0.216824 -0.175596 0.738341 0.00715087 -0.674389
-0.110205 -0.324497 -0.0347122 1.06814e-006 -0.999999 0.00113853
0.378092 0.298205 -0.360184 0.984526 0.174347 0.0176516
0.378064 0.14648 -0.0163228 0.999999 6.34983e-006 0.00102793
-0.30874 -0.28047 -0.598392 0.982107 0.188325 -0.000427112
-0.246027 0.321319 -0.0458457 -1.97482e-005 0.999999 0.00117913
-0.374976 -0.0712306 -0.170396 -0.887556 -0.0193158 -0.460295
-0.374992 -0.0685611 -0.0954245 -1 -3.43885e-006 0.00046936
0.121085 0.321343 0.468147 0.0184977 0.995445 -0.0935234
0.0781847 0.191471 0.0725745 -8.75978e-018 4.88941e-017 1
-0.2338 0.270316 0.794552 0.000644059 -0.474087 -0.880478
-0.00804015 -0.324539 -0.163277 0.00870984 -0.950494 -0.31062
0.341498 -0.260024 -0.345714 -0.109014 0.994037 0.00261522
0.33714 0.260006 -0.194584 -0.251608 -0.911862 -0.324348
-0.246065 -0.231772 0.0725745 0 0 1
0.180001 -0.266445 0.0725745 7.84503e-017 -7.52202e-017 1
0.378092 -0.302104 -0.621192 0.984635 -0.171237 0.0342312
0.256572 0.0775682 0.0725745 0 -0 1
0.0786982 0.173661 -0.180783 1.63214e-016 1.69368e-016 -1
0.367021 0.321349 0.696308 0.443893 0.895147 0.0408756
0.378068 0.260626 0.164582 0.601756 -0.798465 0.0185379
-0.0106319 -0.122612 0.0725745 -1.3068e-017 2.9837e-017 1
-0.30874 0.317479 -0.578469 0.71411 0.699842 -0.0163696
-0.180884 -0.229011 -0.180783 -0 -0 -1
-0.36646 0.321349 -0.773871 -0.59148 0.805406 0.0383846
0.377251 0.260054 0.654133 0.617015 -0.786758 -0.0174631
0.340907 0.321349 -0.0935579 -3.9665e-005 1 3.80695e-006
-0.250365 -0.261946 -0.180783 5.4576e-005 1.67106e-005 -1
-0.374996 -0.271986 -0.68937 -0.887895 0.459188 0.0280897
0.152388 -0.270634 -0.180783 2.25517e-016 2.26916e-016 -1
-0.205453 0.321349 -0.148983 0.00127067 0.999834 -0.0181843
0.378092 -0.274412 -0.568092 0.933749 0.357264 0.0218103
0.329727 0.321349 0.804271 -0.112107 0.988904 -0.0974726
-0.0468257 -0.243887 -0.180783 2.54951e-017 -1.76825e-017 -1
0.366791 0.26003 -0.588659 0.40129 -0.915944 -0.00368033
-0.131301 -0.260548 0.0725745 3.35014e-017 -8.34713e-017 1
0.122085 -0.0997507 0.0725745 -0 0 1
0.337536 0.321349 0.432233 -0.201944 0.974846 -0.0943092
0.218227 0.308964 0.0725745 -0.0209042 0.506906 0.861748
-0.374858 -0.0687383 0.0178026 -0.999995 4.24351e-006 0.00325757
0.232262 0.239253 0.0725745 -6.45682e-017 2.59373e-017 1
-0.0543539 -0.324521 -0.0573276 -7.00849e-006 -1 0.000712737
0.216837 -0.0908829 0.0725745 0 -0 1
0.0216305 0.321297 -0.0318663 2.12714e-005 0.999999 0.00156027
0.330046 0.26003 -0.367934 -0.4681 -0.883153 0.0303937
-0.374974 0.0963889 -0.0709065 -1 3.35151e-006 0.000768105
-0.149003 -0.176988 0.0725745 2.40281e-017 -2.44157e-018 1
0.248102 -0.137333 0.0725745 -4.11855e-017 -1.04531e-016 1
0.20046 0.32106 0.491373 -0.00483519 0.982391 0.186773
0.256958 0.26288 -0.180783 -6.40846e-005 -2.92117e-005 -1
0.180459 0.24611 -0.180783 0 -0 -1
-0.0286377 0.275255 -0.180783 -0 -0 -1
-0.374996 0.27305 0.342459 -0.917354 -0.394208 -0.055339
-0.0905425 0.321132 0.0282972 2.40029e-005 0.999982 0.00596336
-0.347652 0.321349 0.0366567 -0.0800583 0.996716 -0.0121681
-0.336004 0.26003 0.691405 0.0661895 -0.997807 0.00073777
-0.332425 -0.260024 -0.515325 0.106631 0.994298 0.00117403
0.33304 0.321349 -0.222763 -0.375992 0.92639 -0.0207555
-0.135164 -0.235604 -0.180783 5.29915e-017 -2.24855e-017 -1
-0.374936 0.0208249 -0.0223972 -0.999999 -1.6929e-005 0.00101017
-0.0804515 0.12489 -0.180783 -1.60684e-016 3.89492e-017 -1
-0.352451 -0.260088 -0.859552 -0.0904261 0.855049 -0.510601
-0.235497 0.11721 -0.180783 -0 -0 -1
0.268634 0.221206 0.0725745 8.49524e-018 2.16679e-018 1
0.167169 0.288549 0.515723 -0.0110318 -0.0753029 0.9971
-0.156073 -0.227513 0.0725745 4.09416e-017 -5.56609e-017 1
-0.337707 0.149005 -0.180783 -0.0366366 0.00509137 -0.999316
-0.263167 0.0585843 0.0725745 -5.96359e-017 -7.39455e-017 1
0.312317 -0.324539 -0.113205 7.6334e-007 -1 9.30754e-005
0.11928 0.294337 0.515717 -0.016468 0.103925 0.994449
0.249836 -0.188444 0.0725745 2.23307e-017 -2.24047e-018 1
0.356969 -0.0852106 0.0725745 0.202551 -0.00384051 0.979264
0.330132 0.26003 -0.574813 -0.442764 -0.895987 -0.0341669
-0.248437 0.213053 0.0725745 -1.9301e-017 2.3891e-017 1
-0.0811213 -0.0241841 0.0725745 -1.74861e-017 -7.20093e-018 1
-0.319201 0.321349 -0.364374 0.446082 0.894992 -0.000950299
0.378092 -0.301972 -0.534538 0.990818 -0.13516 0.00334379
-0.357434 0.26003 -0.266628 -0.277726 -0.96065 -0.00449822
0.377067 -0.324335 0.0259178 0.744536 -0.667579 -0.00199749
-0.329014 0.26003 0.670396 0.190726 -0.981341 0.0243642
0.378092 -0.291489 -0.356853 0.999825 0.0180715 -0.00491161
0.332609 0.26003 0.3133 -0.391925 -0.919901 -0.0132901
-0.175682 -0.121285 -0.180783 -0 0 -1
-0.0934231 -0.324539 -0.145546 3.73851e-005 -1 -0.000223579
-0.342996 0.321349 0.571997 -2.46875e-005 1 5.61561e-006
-0.315784 -0.260024 -0.586319 0.617758 0.786362 0.00323429
-0.248393 -0.0452524 0.0725745 7.59564e-017 -1.57406e-017 1
0.200836 0.127398 -0.180783 -5.52267e-017 6.37843e-017 -1
0.346503 0.321349 -0.558437 -0.03065 0.998996 0.0326697
-0.0545688 -0.324507 -0.0422988 5.68677e-006 -0.999999 0.00102473
-0.30874 -0.291922 -0.646857 0.999774 0.0211219 -0.00228973
0.22782 0.297636 0.79474 0.0601068 0.137866 -0.988625
-0.374722 0.00304191 0.048399 -0.987659 -0.016701 0.155726
0.208711 -0.286398 0.0725745 2.81093e-017 -9.70611e-018 1
0.00175074 0.297498 0.0725745 -0.0239131 0.208137 0.977807
0.043924 0.040631 -0.180783 0 -0 -1
-0.326643 -0.260024 -0.69266 0.156507 0.98723 -0.0296934
-0.0770865 0.321349 0.813955 -0.0101798 0.982885 -0.183938
-0.346353 -0.324509 -0.859242 0.00151086 -0.877924 -0.478797
-0.341298 -0.324225 0.0492322 -0.0173356 -0.983777 0.178556
-0.374996 0.275349 0.289483 -0.923545 -0.383224 -0.0142485
-0.374996 0.306859 0.780863 -0.943789 0.330542 0.00184828
-0.374918 0.172118 -0.00350497 -0.999998 -1.43599e-005 0.00193782
-0.374996 0.274303 -0.453812 -0.967088 -0.254304 0.00832629
0.21801 0.321349 -0.133137 2.18852e-007 1 -9.33712e-006
0.0400424 -0.290945 -0.180783 0.00735822 -0.0295032 -0.999538
-0.357218 0.321349 -0.17863 -0.24206 0.970256 -0.00320214
-0.268921 -0.0204669 -0.180783 6.81567e-017 3.30457e-019 -1
-0.352385 0.260036 -0.843544 -0.169413 -0.981895 -0.0847454
-0.343018 0.321349 0.283253 -0.0474996 0.998721 -0.0173525
0.0143735 0.0942285 -0.180783 -2.1919e-016 8.19957e-017 -1
-0.218119 -0.324525 -0.0651725 1.98715e-006 -1 0.000579718
0.352074 0.056943 0.0725745 0.136476 0.0170424 0.990497
0.161616 0.299222 0.794927 0.00549471 0.170016 -0.985426
-0.374996 0.310199 0.00342666 -0.919393 0.391367 -0.0393417
0.366608 -0.324539 -0.633359 0.507663 -0.860709 -0.0381848
0.378092 0.297075 -0.287042 0.991649 0.128901 0.00414461
0.378092 0.299456 -0.154446 0.981159 0.192838 0.0118616
0.34723 -0.0300096 -0.180783 0.0447152 0.00818106 -0.998966
0.378092 0.272661 0.456407 0.919501 -0.392447 -0.0224178
0.356935 0.26003 0.378861 0.161168 -0.985917 0.0446335
0.377169 0.321335 -0.488195 0.770877 0.635685 0.0406638
-0.148275 0.0558427 0.0725745 2.51883e-017 -1.72674e-017 1
0.339733 -0.189887 -0.180783 2.07667e-016 -1.25137e-016 -1
-0.0900787 -0.125503 -0.180783 4.60325e-017 -2.03158e-016 -1
0.219861 0.321187 0.0131181 6.54849e-005 0.999992 0.00399896
-0.374852 0.131242 0.0197573 -0.999994 -1.83452e-005 0.00335582
0.242056 -0.0539164 0.0725745 -6.92108e-017 2.32931e-017 1
0.378092 0.317223 0.256644 0.723528 0.690294 -0.00149037
-0.199705 -0.0789048 -0.180783 -0 0 -1
0.271338 0.321349 0.852542 0.0111059 0.971419 0.23711
-0.35174 0.321349 0.292321 -0.158258 0.98731 -0.0131861
0.378092 0.273 0.341295 0.899914 -0.436061 -0.00246959
-0.122832 -0.240362 -0.180783 3.44905e-017 4.19502e-017 -1
0.308185 0.207607 -0.180783 -3.34138e-005 -5.89076e-005 -1
0.378092 0.0692855 -0.156998 0.987057 0.00976474 -0.160071
-0.30874 -0.269831 -0.675636 0.880807 0.472696 0.0271455
-0.314935 0.321349 0.574653 0.541618 0.840518 0.0133854
0.170976 0.260078 0.477542 -0.00044281 -0.999941 0.0108555
-0.240546 0.319276 0.512036 0.0100977 0.675259 0.737512
0.378092 0.311263 -0.260539 0.864992 0.501233 0.0235388
0.252803 0.320908 0.0539708 -0.0320245 0.94166 0.335038
0.378092 -0.297988 -0.688536 0.99836 -0.0567836 -0.00721183
-0.152913 0.273048 0.79488 0.000416027 -0.365357 -0.930867
-0.118182 0.272261 0.794975 -0.0274167 -0.476771 -0.8786
0.338563 0.282321 -0.869226 -0.126851 -0.107316 -0.986099
-0.140589 0.110281 0.0725745 0 -0 1
0.138834 0.320504 0.504822 -0.00101645 0.891892 0.452247
-0.374748 -0.133899 0.0440349 -0.994508 -0.0123044 0.103937
0.205915 0.196605 0.0725745 0 -0 1
0.000840594 -0.125882 -0.180783 -5.2263e-017 9.7711e-017 -1
0.107473 -0.143168 0.0725745 2.86741e-018 3.14602e-017 1
-0.0306358 -0.301651 -0.180783 0.00227208 -0.154086 -0.988055
-0.37474 -0.19919 0.0456211 -0.997059 0.00814274 0.0761989
0.378092 0.296582 0.353486 0.989546 0.14281 0.020119
0.0225918 0.218666 -0.180783 -1.6112e-017 1.96606e-016 -1
-0.365036 -0.243048 -0.180799 -0.606561 0.225196 -0.762477
0.288975 -0.324523 -0.0609206 -1.66868e-005 -1 0.000666706
0.378008 0.00862559 0.0203141 0.999997 3.79182e-007 0.00236962
-0.355852 -0.324539 -0.196769 -0.263039 -0.964783 -0.0019827
-0.0157637 0.109918 0.0725745 2.99709e-017 2.85052e-017 1
-0.30874 0.284962 -0.796633 0.997001 -0.0772634 -0.00434536
0.0621044 0.129823 -0.180783 -1.41754e-016 8.07829e-017 -1
0.124001 0.200121 -0.180783 -0 -0 -1
0.0388227 0.321349 0.451714 0.025435 0.808322 -0.588191
-0.339689 -0.104133 0.0725745 -0.0168288 -9.95788e-005 0.999858
-0.374996 0.282805 -0.818037 -0.987594 -0.156197 0.0161605
-0.374996 -0.296034 -0.363116 -0.994591 -0.103078 -0.012809
-0.374996 -0.299799 -0.409328 -0.996332 -0.0853762 -0.00577516
0.0740003 -0.142181 0.0725745 1.79607e-017 -3.14988e-017 1
0.344576 0.321349 0.0285775 -0.00183796 0.999998 0.000988281
0.378092 -0.0293151 -0.0527433 1 -1.32824e-005 0.000371743
-0.0207936 0.0289155 -0.180783 8.21252e-017 7.75662e-018 -1
-0.374996 0.316776 -0.412931 -0.808202 0.588878 -0.00563152
0.18184 0.314117 0.0725745 0.0233469 0.651089 0.758643
0.370438 -0.260024 -0.305528 0.525754 0.850622 0.00496433
